ply
format ascii 1.0
element vertex 1202
property float x
property float y
property float z
property uchar red
property uchar green
property uchar blue
end_header
0.788866 -0.406416 2.08856  255 255 255
0.774764 -0.406897 2.08903  255 255 255
-0.164509 -0.522174 2.30773  255 255 255
-0.112936 -0.532456 2.30737  255 255 255
0.195554 -0.563275 2.40103  255 255 255
-0.146497 -0.535329 2.35991  255 255 255
0.221709 -0.516329 2.43859  255 255 255
0.0440035 -0.507281 2.43679  255 255 255
0.989195 -0.263673 2.09153  255 255 255
-0.187838 -0.391263 2.37931  255 255 255
0.994975 -0.23984 2.09237  255 255 255
1.01135 -0.235986 2.09187  255 255 255
-0.221025 -0.370437 2.37519  255 255 255
0.824419 -0.262528 2.09977  255 255 255
0.834001 -0.253641 2.10666  255 255 255
0.846681 -0.242333 2.10427  255 255 255
0.971687 -0.220773 2.09673  255 255 255
0.977828 -0.203487 2.09698  255 255 255
0.821129 -0.220668 2.10827  255 255 255
0.986136 -0.195079 2.10448  255 255 255
0.979118 -0.185236 2.09845  255 255 255
-0.471175 -0.207141 2.23594  255 255 255
0.830155 -0.181904 2.10471  255 255 255
0.989789 -0.146767 2.09975  255 255 255
0.839743 -0.160015 2.11144  255 255 255
0.997298 -0.118861 2.10279  255 255 255
0.986087 -0.113229 2.10481  255 255 255
0.186683 -0.113541 1.90574  255 255 255
0.222816 -0.129385 1.98106  255 255 255
0.976506 -0.0964714 2.10398  255 255 255
-0.135648 -0.0601304 2.05481  255 255 255
0.975188 -0.0691685 2.10506  255 255 255
0.91697 -0.0523351 2.10891  255 255 255
1.02649 -0.0525187 2.09732  255 255 255
0.127479 -0.0367794 1.93673  255 255 255
-0.0555878 -0.0151848 1.98153  255 255 255
1.03392 -0.0149759 2.09453  255 255 255
0.994413 0.0144012 2.10375  255 255 255
0.332612 0.0817074 1.81175  255 255 255
0.601355 0.467525 1.8758  255 255 255
0.552917 0.482348 1.85489  255 255 255
0.573198 0.505494 1.84916  255 255 255
0.159 0.513089 1.7946  255 255 255
0.545459 0.515043 1.83857  255 255 255
0.36953 0.531983 1.78946  255 255 255
0.36074 0.532873 1.78742  255 255 255
0.651768 0.522503 1.85457  255 255 255
0.696665 0.519429 1.8592  255 255 255
0.714898 0.519702 1.85879  255 255 255
0.722489 0.521271 1.85771  255 255 255
0.729383 0.524332 1.85499  255 255 255
0.42687 0.563461 1.79248  255 255 255
0.218107 0.606249 1.7996  255 255 255
0.229884 0.577924 1.77217  255 255 255
0.45939 0.578345 1.79316  255 255 255
0.470621 0.584863 1.79362  255 255 255
0.456703 0.598629 1.78569  255 255 255
0.313724 0.620421 1.76277  255 255 255
0.401052 0.634004 1.76693  255 255 255
-0.583704 -0.689646 2.2221  255 255 255
0.36552 -0.753163 2.33677  255 255 255
0.388798 -0.752999 2.35613  255 255 255
0.454438 -0.770763 2.39266  255 255 255
-0.176903 -0.710443 2.23271  255 255 255
-0.146545 -0.711814 2.24502  255 255 255
0.307231 -0.747451 2.33929  255 255 255
0.441513 -0.761182 2.38748  255 255 255
-0.120164 -0.71334 2.25439  255 255 255
-0.201041 -0.691519 2.23351  255 255 255
-0.236559 -0.68127 2.22696  255 255 255
-0.136048 -0.703527 2.25347  255 255 255
-0.105016 -0.707418 2.26267  255 255 255
-0.61458 -0.630812 2.23482  255 255 255
0.290197 -0.734633 2.34066  255 255 255
0.400151 -0.725248 2.36194  255 255 255
0.934858 -0.54094 2.07653  255 255 255
0.251418 -0.724992 2.33299  255 255 255
-0.000563761 -0.711063 2.29644  255 255 255
0.485475 -0.722787 2.40217  255 255 255
0.165759 -0.716715 2.31445  255 255 255
1.01965 -0.511793 2.0671  255 255 255
0.191912 -0.715339 2.32119  255 255 255
0.216246 -0.710907 2.32195  255 255 255
0.470027 -0.713897 2.3971  255 255 255
1.06619 -0.488505 2.0649  255 255 255
0.158324 -0.703194 2.30819  255 255 255
1.01096 -0.498782 2.06864  255 255 255
0.020291 -0.692154 2.30585  255 255 255
-0.661181 -0.515882 2.27355  255 255 255
0.190197 -0.692762 2.32555  255 255 255
1.0309 -0.476977 2.07761  255 255 255
1.01754 -0.474993 2.08216  255 255 255
0.204679 -0.68275 2.32773  255 255 255
1.03695 -0.471195 2.06717  255 255 255
0.245833 -0.677911 2.33411  255 255 255
0.453592 -0.677261 2.39229  255 255 255
0.272025 -0.674577 2.33842  255 255 255
0.988138 -0.464522 2.07373  255 255 255
1.03476 -0.452526 2.06914  255 255 255
0.234826 -0.662203 2.33343  255 255 255
0.479151 -0.645775 2.40465  255 255 255
0.267166 -0.649168 2.34261  255 255 255
0.296769 -0.649529 2.35658  255 255 255
-0.240971 -0.595399 2.27637  255 255 255
1.07974 -0.417842 2.06472  255 255 255
1.09035 -0.421839 2.06547  255 255 255
0.176593 -0.634014 2.31421  255 255 255
0.98368 -0.437394 2.0764  255 255 255
0.394848 -0.628431 2.37466  255 255 255
0.346332 -0.623327 2.37136  255 255 255
0.252966 -0.627529 2.36295  255 255 255
-0.0478398 -0.59605 2.29936  255 255 255
-0.124353 -0.576819 2.29047  255 255 255
0.401524 -0.611112 2.38014  255 255 255
0.289045 -0.616384 2.36078  255 255 255
0.370205 -0.607452 2.37462  255 255 255
0.271116 -0.61174 2.36626  255 255 255
0.218049 -0.608289 2.36072  255 255 255
0.508065 -0.590661 2.41625  255 255 255
0.308838 -0.601469 2.37175  255 255 255
1.07277 -0.383339 2.06844  255 255 255
0.178757 -0.605703 2.35978  255 255 255
0.280112 -0.597696 2.37284  255 255 255
0.201995 -0.597667 2.36227  255 255 255
0.22554 -0.59215 2.37057  255 255 255
0.481962 -0.572012 2.4031  255 255 255
0.442952 -0.571398 2.394  255 255 255
0.419336 -0.561158 2.37829  255 255 255
0.36973 -0.56347 2.37016  255 255 255
0.408879 -0.562089 2.39709  255 255 255
0.00294248 -0.566913 2.38644  255 255 255
-0.138128 -0.523922 2.30664  255 255 255
0.113365 -0.563713 2.37175  255 255 255
-0.19482 -0.526518 2.35228  255 255 255
-0.169103 -0.506618 2.30927  255 255 255
-0.228868 -0.502168 2.35224  255 255 255
-0.205371 -0.507204 2.35566  255 255 255
0.828478 -0.360786 2.09245  255 255 255
0.840074 -0.33606 2.09514  255 255 255
0.831182 -0.29295 2.10026  255 255 255
0.826272 -0.27891 2.10516  255 255 255
0.995056 -0.253776 2.09076  255 255 255
-0.250281 -0.371596 2.34156  255 255 255
0.990699 -0.249976 2.10189  255 255 255
0.815071 -0.276344 2.10036  255 255 255
0.854751 -0.26836 2.10024  255 255 255
0.970059 -0.244805 2.09592  255 255 255
0.834915 -0.267623 2.1018  255 255 255
-0.269726 -0.35465 2.36188  255 255 255
-0.295605 -0.343798 2.35912  255 255 255
0.879894 -0.247371 2.10141  255 255 255
0.982932 -0.227425 2.09554  255 255 255
0.835642 -0.24716 2.10376  255 255 255
0.938785 -0.225287 2.10874  255 255 255
0.965665 -0.216309 2.09782  255 255 255
0.967776 -0.1953 2.09914  255 255 255
0.828029 -0.192273 2.10979  255 255 255
0.841666 -0.18394 2.10958  255 255 255
0.985129 -0.16472 2.09889  255 255 255
0.976548 -0.160603 2.10005  255 255 255
0.868573 -0.156355 2.11019  255 255 255
1.01142 -0.139306 2.10016  255 255 255
0.983899 -0.137403 2.10071  255 255 255
0.846163 -0.143647 2.11305  255 255 255
0.835974 -0.133094 2.11287  255 255 255
0.975685 -0.114931 2.10248  255 255 255
1.01802 -0.113171 2.09749  255 255 255
0.985604 -0.106574 2.10215  255 255 255
0.927114 -0.107835 2.10868  255 255 255
1.04162 -0.104142 2.09352  255 255 255
0.944307 -0.100026 2.10691  255 255 255
-0.152786 -0.09371 2.0859  255 255 255
0.877336 -0.0853954 2.11099  255 255 255
0.845126 -0.083535 2.1121  255 255 255
0.980067 -0.0812558 2.1037  255 255 255
0.932381 -0.0744901 2.10844  255 255 255
0.835944 -0.0696219 2.11174  255 255 255
0.909068 -0.0673291 2.11013  255 255 255
0.898769 -0.0640664 2.11117  255 255 255
0.957817 -0.0601931 2.10697  255 255 255
0.971737 -0.0593366 2.10559  255 255 255
0.929497 -0.0554912 2.11053  255 255 255
0.863263 -0.0503009 2.10574  255 255 255
0.828575 -0.0474972 2.11253  255 255 255
0.980566 -0.0483104 2.10453  255 255 255
-0.39143 -0.0136609 2.15698  255 255 255
-0.344623 -0.00817412 2.13055  255 255 255
0.793103 -0.0314331 2.08923  255 255 255
0.991129 -0.0318075 2.10399  255 255 255
0.872402 -0.0247891 2.10632  255 255 255
-0.351406 0.0297411 2.14629  255 255 255
1.02336 -0.0170984 2.0992  255 255 255
0.9904 -0.0149637 2.1044  255 255 255
-0.427711 0.0399295 2.13274  255 255 255
0.872573 -0.00153207 2.10596  255 255 255
0.991135 6.43644e-05 2.10469  255 255 255
0.780604 0.0203125 2.11828  255 255 255
0.405001 0.0525138 1.85653  255 255 255
-0.260309 0.116384 2.04534  255 255 255
0.889684 0.132892 2.11406  255 255 255
0.978966 0.11939 2.10341  255 255 255
0.214122 0.221482 1.82624  255 255 255
0.147542 0.339163 1.90764  255 255 255
0.198677 0.31015 1.90353  255 255 255
0.170633 0.331014 1.90089  255 255 255
0.0456394 0.394016 1.93107  255 255 255
-0.271425 0.371373 2.07166  255 255 255
-0.245082 0.39068 2.07474  255 255 255
0.591392 0.368869 1.95164  255 255 255
0.521294 0.370968 1.88318  255 255 255
0.434665 0.464907 1.86713  255 255 255
0.688252 0.432908 1.91836  255 255 255
0.621781 0.475508 1.91148  255 255 255
0.567191 0.47879 1.86105  255 255 255
0.561489 0.504669 1.87066  255 255 255
0.377373 0.540216 1.78851  255 255 255
0.446381 0.562243 1.79563  255 255 255
0.456138 0.621199 1.77708  255 255 255
-0.223343 -0.700151 2.22107  255 255 255
-0.173255 -0.710965 2.23266  255 255 255
-0.14539 -0.712133 2.24508  255 255 255
0.308136 -0.747724 2.33976  255 255 255
1.05778 -0.536349 2.06449  255 255 255
0.440741 -0.759076 2.38684  255 255 255
-0.195085 -0.693285 2.22869  255 255 255
0.373195 -0.744069 2.35532  255 255 255
-0.101963 -0.70537 2.25954  255 255 255
0.286564 -0.735034 2.34065  255 255 255
0.95219 -0.534425 2.07148  255 255 255
0.221124 -0.728849 2.32319  255 255 255
0.250606 -0.730118 2.3315  255 255 255
0.31037 -0.722537 2.34526  255 255 255
-0.001825 -0.701877 2.27958  255 255 255
0.166025 -0.718155 2.31315  255 255 255
1.01812 -0.512587 2.06691  255 255 255
-0.267024 -0.650318 2.22631  255 255 255
0.484259 -0.720678 2.40366  255 255 255
0.276022 -0.717684 2.33631  255 255 255
0.21683 -0.711389 2.32293  255 255 255
0.098811 -0.709404 2.31115  255 255 255
1.01214 -0.499385 2.0683  255 255 255
0.164359 -0.705828 2.32363  255 255 255
0.257645 -0.702535 2.33508  255 255 255
0.0246053 -0.693089 2.30624  255 255 255
1.0317 -0.49005 2.06758  255 255 255
0.0474122 -0.692968 2.31228  255 255 255
0.18652 -0.693917 2.32645  255 255 255
1.02967 -0.478588 2.07817  255 255 255
0.348183 -0.685927 2.36526  255 255 255
1.01013 -0.475747 2.07108  255 255 255
0.206093 -0.680267 2.32611  255 255 255
1.05861 -0.455443 2.06682  255 255 255
0.987827 -0.463445 2.07338  255 255 255
0.239696 -0.665698 2.33458  255 255 255
0.519274 -0.652681 2.41311  255 255 255
-0.227471 -0.594146 2.26574  255 255 255
0.364595 -0.647928 2.36364  255 255 255
0.324956 -0.648756 2.34945  255 255 255
0.478966 -0.643955 2.40201  255 255 255
1.06394 -0.42544 2.07006  255 255 255
0.441165 -0.642001 2.39431  255 255 255
-0.177097 -0.594576 2.27769  255 255 255
0.985387 -0.436949 2.0762  255 255 255
-0.233283 -0.576011 2.27413  255 255 255
0.393094 -0.63006 2.37337  255 255 255
-0.0569337 -0.592573 2.29691  255 255 255
0.405405 -0.610792 2.38907  255 255 255
0.275141 -0.608903 2.34004  255 255 255
0.37677 -0.606847 2.38572  255 255 255
-0.104139 -0.571983 2.29665  255 255 255
0.425775 -0.602065 2.39  255 255 255
0.218411 -0.609486 2.35966  255 255 255
1.07562 -0.382444 2.07055  255 255 255
0.458603 -0.585474 2.39756  255 255 255
0.108091 -0.597732 2.36973  255 255 255
0.48401 -0.571397 2.40271  255 255 255
0.334234 -0.573258 2.35638  255 255 255
-0.107491 -0.54684 2.3048  255 255 255
0.136439 -0.583448 2.37135  255 255 255
0.41759 -0.561786 2.4032  255 255 255
-0.164315 -0.524036 2.30588  255 255 255
0.00806274 -0.570206 2.38788  255 255 255
0.783515 -0.376707 2.09105  255 255 255
-0.20303 -0.478317 2.3134  255 255 255
0.861049 -0.345384 2.10856  255 255 255
-0.301673 -0.450239 2.34964  255 255 255
-0.266287 -0.456232 2.36103  255 255 255
-0.297221 -0.333371 2.34802  255 255 255
0.850472 -0.247155 2.10379  255 255 255
0.83809 -0.237052 2.10732  255 255 255
0.841558 -0.207474 2.10068  255 255 255
0.852537 -0.195673 2.10702  255 255 255
0.987616 -0.165591 2.09854  255 255 255
0.832983 -0.168683 2.11078  255 255 255
0.850234 -0.164577 2.1111  255 255 255
0.985084 -0.136978 2.10282  255 255 255
0.846949 -0.14241 2.11388  255 255 255
0.987185 -0.105012 2.10181  255 255 255
0.832479 -0.109937 2.11329  255 255 255
0.942921 -0.102042 2.10758  255 255 255
0.846959 -0.0854882 2.11378  255 255 255
0.89243 -0.0839949 2.11255  255 255 255
0.980764 -0.0810624 2.10414  255 255 255
0.952354 -0.0767577 2.1075  255 255 255
0.931556 -0.0769837 2.10842  255 255 255
0.833957 -0.0710402 2.11166  255 255 255
-0.336197 -0.0452694 2.13207  255 255 255
0.971546 -0.062582 2.10648  255 255 255
0.896675 -0.0608471 2.10946  255 255 255
0.958611 -0.0567553 2.10677  255 255 255
0.929349 -0.0538691 2.11024  255 255 255
0.864392 -0.0510138 2.11134  255 255 255
0.828002 -0.0443298 2.11251  255 255 255
-0.374618 -0.00754223 2.13457  255 255 255
0.795314 -0.0295265 2.09516  255 255 255
0.990855 -0.0346395 2.10463  255 255 255
0.876236 -0.0265672 2.11331  255 255 255
-0.31121 0.0352127 2.1256  255 255 255
1.03097 0.0048817 2.09799  255 255 255
0.410386 0.0491747 1.85792  255 255 255
0.98499 0.03195 2.10418  255 255 255
0.75818 0.05123 2.08724  255 255 255
0.978752 0.094228 2.10654  255 255 255
0.812983 0.136548 2.11546  255 255 255
0.890853 0.130305 2.11415  255 255 255
0.979566 0.120814 2.10317  255 255 255
0.256248 0.25058 1.90623  255 255 255
0.236648 0.265232 1.9166  255 255 255
0.165434 0.280006 1.92209  255 255 255
0.222079 0.325355 1.89583  255 255 255
0.198216 0.327197 1.89995  255 255 255
0.167001 0.328325 1.89908  255 255 255
0.11927 0.366607 1.90087  255 255 255
0.554295 0.360744 1.90237  255 255 255
0.316048 0.409417 1.80704  255 255 255
0.459196 0.42075 1.8432  255 255 255
0.740681 0.42319 1.96727  255 255 255
0.413731 0.463889 1.86131  255 255 255
0.825021 0.393716 1.95582  255 255 255
0.726325 0.440149 1.94951  255 255 255
0.644853 0.489007 1.87514  255 255 255
0.421871 0.53446 1.8387  255 255 255
0.207103 0.520401 1.78739  255 255 255
0.366333 0.530756 1.79151  255 255 255
0.406841 0.569765 1.81267  255 255 255
0.377688 -0.774951 2.36433  255 255 255
-0.137335 -0.714876 2.24843  255 255 255
0.304598 -0.74773 2.34218  255 255 255
-0.193958 -0.693156 2.23123  255 255 255
0.278618 -0.736121 2.34128  255 255 255
0.230663 -0.729829 2.32515  255 255 255
0.943534 -0.537431 2.07166  255 255 255
0.313433 -0.728026 2.34117  255 255 255
0.164142 -0.722078 2.31368  255 255 255
-0.00761259 -0.697506 2.28016  255 255 255
0.0904548 -0.712469 2.30982  255 255 255
0.432578 -0.72244 2.39402  255 255 255
0.482308 -0.71035 2.40256  255 255 255
0.116195 -0.692718 2.30293  255 255 255
0.253311 -0.699724 2.33622  255 255 255
0.177213 -0.69709 2.32297  255 255 255
0.990266 -0.487364 2.08548  255 255 255
1.0241 -0.485347 2.06975  255 255 255
0.329514 -0.686558 2.35395  255 255 255
0.382547 -0.678538 2.36565  255 255 255
-0.22056 -0.634399 2.27212  255 255 255
0.191435 -0.674996 2.33153  255 255 255
1.00943 -0.469125 2.08563  255 255 255
0.0719655 -0.63164 2.29457  255 255 255
0.288097 -0.651281 2.3549  255 255 255
0.438859 -0.636683 2.39041  255 255 255
-0.0563339 -0.590524 2.29762  255 255 255
0.101876 -0.626128 2.3603  255 255 255
0.101891 -0.600147 2.35494  255 255 255
0.371791 -0.56892 2.36741  255 255 255
0.147538 -0.581617 2.37174  255 255 255
-0.668336 -0.37308 2.26224  255 255 255
0.0929539 -0.538165 2.30945  255 255 255
-0.286895 -0.438557 2.31568  255 255 255
-0.334517 -0.397067 2.32561  255 255 255
0.807287 -0.312187 2.10637  255 255 255
0.85189 -0.264124 2.10191  255 255 255
0.829092 -0.1712 2.1125  255 255 255
0.873106 -0.168013 2.10895  255 255 255
0.85153 -0.152545 2.11037  255 255 255
0.895896 -0.147418 2.10819  255 255 255
0.940963 -0.114021 2.10861  255 255 255
0.989296 -0.102871 2.10038  255 255 255
0.82863 -0.108664 2.11429  255 255 255
0.852225 -0.0862764 2.11131  255 255 255
0.927491 -0.079438 2.1081  255 255 255
0.830216 -0.0754839 2.11183  255 255 255
0.968236 -0.0705315 2.10723  255 255 255
0.899131 -0.05932 2.11149  255 255 255
0.98708 -0.0445491 2.10415  255 255 255
0.81835 -0.03417 2.09712  255 255 255
0.995333 -0.00852541 2.10353  255 255 255
1.02883 0.00452714 2.09718  255 255 255
-0.250729 0.115158 2.04822  255 255 255
-0.0462979 0.126642 1.97424  255 255 255
0.404509 0.0951545 1.84133  255 255 255
0.975916 0.094679 2.10442  255 255 255
0.795836 0.13939 2.09541  255 255 255
0.981288 0.123021 2.10284  255 255 255
0.184945 0.277384 1.89929  255 255 255
0.481486 0.283522 1.89938  255 255 255
0.161143 0.39431 1.8942  255 255 255
-0.297907 0.366423 2.08293  255 255 255
-0.248117 0.388828 2.07094  255 255 255
0.704531 0.34709 1.96264  255 255 255
0.704276 0.386372 1.98123  255 255 255
0.762338 0.43841 1.96194  255 255 255
0.743686 0.458498 1.93254  255 255 255
0.424365 0.531815 1.83827  255 255 255
-0.189329 -0.693533 2.23804  255 255 255
-0.0512696 -0.714771 2.26127  255 255 255
0.232468 -0.741442 2.32516  255 255 255
0.819906 -0.567337 2.10774  255 255 255
-0.0137057 -0.702726 2.30006  255 255 255
0.292596 -0.71012 2.34459  255 255 255
0.121087 -0.694184 2.3031  255 255 255
0.165994 -0.693268 2.32415  255 255 255
0.316153 -0.688175 2.34678  255 255 255
0.18452 -0.659523 2.32034  255 255 255
-0.251977 -0.585355 2.26971  255 255 255
0.333837 -0.634728 2.35377  255 255 255
-0.166924 -0.590687 2.29131  255 255 255
0.237252 -0.630302 2.3301  255 255 255
-0.217593 -0.572601 2.27212  255 255 255
-0.214677 -0.555215 2.28036  255 255 255
-0.130131 -0.562422 2.29898  255 255 255
0.146924 -0.553404 2.31053  255 255 255
-0.185339 -0.516546 2.30398  255 255 255
-0.111797 -0.556106 2.35718  255 255 255
1.01045 -0.245496 2.09188  255 255 255
0.828836 -0.245624 2.10282  255 255 255
0.996992 -0.172504 2.10183  255 255 255
0.977447 -0.161674 2.10343  255 255 255
0.899006 -0.140016 2.11022  255 255 255
0.85714 -0.137002 2.10759  255 255 255
0.939307 -0.122714 2.10849  255 255 255
0.85616 -0.0909258 2.109  255 255 255
0.962118 -0.0785943 2.10533  255 255 255
0.98997 -0.0470759 2.10269  255 255 255
0.785124 0.029047 2.12071  255 255 255
0.616589 0.174836 1.99261  255 255 255
0.30163 0.248182 1.927  255 255 255
-0.0131653 0.291345 1.91652  255 255 255
0.0599198 -0.712394 2.30403  255 255 255
-0.0291116 -0.699407 2.30037  255 255 255
0.197216 -0.658948 2.33152  255 255 255
-0.225247 -0.568238 2.27258  255 255 255
0.934894 -0.144676 2.10822  255 255 255
0.865218 -0.12394 2.11083  255 255 255
0.709349 0.0908112 2.05768  255 255 255
-0.385246 0.396552 2.09421  255 255 255
0.380807 0.414742 1.81206  255 255 255
0.872945 -0.124796 2.1101  255 255 255
-0.381872 0.395373 2.09033  255 255 255
-0.601744 -0.754797 2.15917  255 255 255
0.655737 -1.00171 2.42442  255 255 255
-0.569466 -0.865728 2.46678  255 255 255
0.152603 -0.75162 2.23983  255 255 255
-0.160033 -0.680833 2.19365  255 255 255
-0.146978 -0.684651 2.19898  255 255 255
0.126888 -0.754718 2.30289  255 255 255
0.142704 -0.739648 2.28105  255 255 255
-0.283239 -0.64332 2.23626  255 255 255
-0.187571 -0.692446 2.29948  255 255 255
0.35158 -0.748629 2.34121  255 255 255
-0.266557 -0.655279 2.28919  255 255 255
-0.320923 -0.615857 2.2687  255 255 255
0.33226 -0.730254 2.34619  255 255 255
0.0458331 -0.686752 2.32652  255 255 255
-0.193227 -0.613584 2.27596  255 255 255
0.723999 -0.589702 2.00276  255 255 255
0.788472 -0.584928 2.00263  255 255 255
-0.726336 -0.443305 2.38992  255 255 255
-0.722749 -0.445882 2.4025  255 255 255
-0.195828 -0.679986 2.56983  255 255 255
-0.0334564 -0.689284 2.52268  255 255 255
0.705828 -0.563677 2.00984  255 255 255
-0.65646 -0.478625 2.44204  255 255 255
0.714889 -0.557693 2.0143  255 255 255
-0.645088 -0.483957 2.45985  255 255 255
0.71232 -0.542803 2.01965  255 255 255
0.699793 -0.540715 2.03865  255 255 255
-0.0671125 -0.675205 2.61414  255 255 255
0.719683 -0.531234 2.03873  255 255 255
1.01267 -0.530767 2.05103  255 255 255
0.360494 -0.620558 2.45021  255 255 255
1.03008 -0.519358 2.0564  255 255 255
-0.479939 -0.497006 2.5135  255 255 255
0.699806 -0.507223 2.04185  255 255 255
0.0470582 -0.640558 2.65765  255 255 255
0.33034 -0.600648 2.50663  255 255 255
-0.438289 -0.599812 2.78736  255 255 255
0.705411 -0.49455 2.04714  255 255 255
-0.507264 -0.467481 2.56836  255 255 255
0.300776 -0.590161 2.55308  255 255 255
0.817279 -0.47336 2.02906  255 255 255
1.00724 -0.476238 2.04835  255 255 255
0.811127 -0.447174 2.03806  255 255 255
0.829347 -0.446859 2.03577  255 255 255
1.04298 -0.454272 2.05322  255 255 255
1.04964 -0.454117 2.05461  255 255 255
-0.382667 -0.358611 2.40216  255 255 255
-0.572013 -0.395102 2.67216  255 255 255
-0.285545 -0.414444 2.50796  255 255 255
0.976733 -0.426377 2.04621  255 255 255
-0.371856 -0.35137 2.43775  255 255 255
0.805889 -0.420905 2.04762  255 255 255
1.07447 -0.436412 2.06822  255 255 255
0.776213 -0.420227 2.05298  255 255 255
-0.602883 -0.462891 2.87873  255 255 255
-0.744896 0.00233657 1.91908  255 255 255
-0.788506 0.020075 1.94509  255 255 255
1.05337 -0.410511 2.06232  255 255 255
0.82908 -0.390977 2.06486  255 255 255
-0.68528 0.0146279 1.91637  255 255 255
-0.198383 -0.48706 2.90964  255 255 255
0.827681 -0.38674 2.05486  255 255 255
1.07743 -0.403283 2.06907  255 255 255
1.08313 -0.402473 2.07087  255 255 255
1.09197 -0.402649 2.07352  255 255 255
0.935735 -0.382666 2.05055  255 255 255
0.916211 -0.379748 2.05119  255 255 255
1.08605 -0.3913 2.06742  255 255 255
-0.686919 0.030872 1.93558  255 255 255
0.837868 -0.368873 2.08724  255 255 255
-0.728226 0.0471761 1.93911  255 255 255
1.08511 -0.381601 2.07163  255 255 255
-1.31406 0.124448 2.2867  255 255 255
-0.00953533 -0.422163 2.75792  255 255 255
-1.48776 0.146857 2.4019  255 255 255
-0.715399 0.052987 1.95128  255 255 255
1.03294 -0.369289 2.06924  255 255 255
1.06921 -0.373164 2.06764  255 255 255
-1.57938 0.167922 2.46018  255 255 255
-0.815437 0.0782611 1.9948  255 255 255
1.03402 -0.361487 2.06154  255 255 255
1.0736 -0.367822 2.06711  255 255 255
-0.73152 0.0680088 1.9585  255 255 255
-0.90897 0.103105 2.05694  255 255 255
1.03563 -0.352629 2.07218  255 255 255
1.0589 -0.353249 2.06699  255 255 255
-0.957724 0.122653 2.08202  255 255 255
1.06351 -0.34744 2.06809  255 255 255
1.06815 -0.347668 2.06943  255 255 255
-0.862716 0.119888 2.03737  255 255 255
0.923875 -0.316634 2.06412  255 255 255
-0.930638 0.141796 2.07789  255 255 255
-0.63939 0.109522 1.79425  255 255 255
-0.182028 -0.274981 2.65972  255 255 255
1.01101 -0.311354 2.08406  255 255 255
1.05941 -0.318948 2.07467  255 255 255
-0.228724 -0.0659013 2.15237  255 255 255
0.995635 -0.291924 2.08871  255 255 255
-0.280126 0.0113591 1.97267  255 255 255
1.05249 -0.298896 2.07096  255 255 255
-0.183087 -0.158435 2.52925  255 255 255
-0.167637 -0.160229 2.56463  255 255 255
-0.415716 0.035209 2.12733  255 255 255
0.974569 -0.268343 2.09283  255 255 255
1.03457 -0.267324 2.08837  255 255 255
-0.144814 -0.0566254 2.4798  255 255 255
-0.221639 0.0532805 2.01288  255 255 255
0.789138 -0.210942 2.12801  255 255 255
0.97736 -0.240514 2.09625  255 255 255
-0.283451 0.091432 1.94853  255 255 255
1.01151 -0.224954 2.07787  255 255 255
-0.264097 0.0807087 2.1266  255 255 255
1.01205 -0.225497 2.09637  255 255 255
-0.0891658 -0.0126519 2.49282  255 255 255
-0.0593757 -0.0225723 2.5422  255 255 255
0.393463 -0.0397059 1.96173  255 255 255
0.13792 -0.0640776 2.58875  255 255 255
-0.187038 0.115087 2.02336  255 255 255
-0.119621 0.103283 2.08106  255 255 255
-0.236044 0.14215 1.9865  255 255 255
0.19843 -0.0119304 2.52169  255 255 255
-0.344552 0.189503 2.07832  255 255 255
0.278868 -0.00849296 2.48669  255 255 255
-0.209319 0.164107 1.97362  255 255 255
-0.149374 0.149425 2.05907  255 255 255
0.224538 0.0188253 2.48082  255 255 255
-0.0856529 0.140063 2.21202  255 255 255
0.131136 0.0531742 2.50202  255 255 255
0.177557 0.0419034 2.49232  255 255 255
0.250665 0.0279729 2.47525  255 255 255
-0.0184821 0.121022 2.37146  255 255 255
0.0552487 0.113609 2.27466  255 255 255
0.203384 0.0556587 2.47275  255 255 255
0.106693 0.101716 2.45699  255 255 255
0.297713 0.050844 2.426  255 255 255
0.189059 0.0895759 2.45464  255 255 255
0.170563 0.101645 2.45003  255 255 255
0.172719 0.111055 2.42505  255 255 255
0.156232 0.131971 2.42533  255 255 255
0.269583 0.103297 2.39926  255 255 255
-0.139208 0.212845 2.03113  255 255 255
0.135516 0.157757 2.39557  255 255 255
0.182459 0.147176 2.39948  255 255 255
0.0990163 0.17786 2.36479  255 255 255
0.132329 0.174447 2.35752  255 255 255
1.00879 -0.0787048 2.09857  255 255 255
-0.14549 0.320703 2.21107  255 255 255
0.0543838 0.293667 2.12884  255 255 255
-0.135312 0.327514 2.21889  255 255 255
0.143294 0.282539 2.09866  255 255 255
-0.149592 0.33844 2.19068  255 255 255
-0.140411 0.345484 2.21086  255 255 255
-0.14625 0.34973 2.18579  255 255 255
-0.0477631 0.341292 2.12723  255 255 255
-0.136126 0.37468 2.1558  255 255 255
-0.677156 0.46141 2.11705  255 255 255
-0.148959 0.396821 2.12914  255 255 255
-0.0274017 0.409733 2.17007  255 255 255
0.571209 0.257949 2.1791  255 255 255
0.591896 0.265369 2.16452  255 255 255
0.940626 0.197952 2.09936  255 255 255
0.945554 0.198916 2.12161  255 255 255
0.994631 0.185063 2.11647  255 255 255
0.988362 0.204717 2.09881  255 255 255
1.01659 0.194899 2.11617  255 255 255
0.69033 0.385102 1.90183  255 255 255
0.131858 0.560469 1.92281  255 255 255
0.14243 0.598604 1.96166  255 255 255
0.659043 0.461125 1.84081  255 255 255
0.529569 0.521746 1.98482  255 255 255
0.14576 0.622376 1.94031  255 255 255
0.151971 0.628325 1.93532  255 255 255
0.522495 0.545096 1.97068  255 255 255
0.298681 0.60702 1.94572  255 255 255
0.463149 0.565042 1.96283  255 255 255
0.264973 0.614027 1.94126  255 255 255
0.276682 0.613468 1.94207  255 255 255
0.174312 0.637784 1.92908  255 255 255
0.235379 0.62785 1.93223  255 255 255
0.299641 0.632882 1.92639  255 255 255
0.319534 0.629352 1.92792  255 255 255
0.634382 0.538497 1.96534  255 255 255
0.324081 0.633756 1.92553  255 255 255
0.258807 0.672047 1.90136  255 255 255
0.386198 -0.978864 2.45495  255 255 255
-0.684895 -0.744752 2.26486  255 255 255
-0.626212 -0.818756 2.38242  255 255 255
0.61139 -0.951985 2.40398  255 255 255
0.32224 -0.955832 2.47516  255 255 255
-0.683502 -0.779522 2.35836  255 255 255
-0.567447 -0.880604 2.52374  255 255 255
-0.468353 -0.916561 2.56151  255 255 255
-0.260642 -0.947838 2.54645  255 255 255
0.641553 -0.912764 2.39474  255 255 255
-0.558753 -0.894343 2.57352  255 255 255
0.608577 -0.865527 2.40033  255 255 255
0.726598 -0.867121 2.38982  255 255 255
1.10581 -0.811032 2.24352  255 255 255
0.475481 -0.761411 2.2071  255 255 255
-0.933665 -0.715786 2.64478  255 255 255
-0.20722 -0.654112 2.17781  255 255 255
-0.173848 -0.695232 2.25075  255 255 255
-0.271513 -0.660173 2.23554  255 255 255
-0.313738 -0.631614 2.26166  255 255 255
-0.302237 -0.630081 2.26445  255 255 255
-0.325988 -0.608012 2.24878  255 255 255
0.346064 -0.714116 2.28655  255 255 255
-0.0449528 -0.716435 2.36788  255 255 255
0.464971 -0.702855 2.26732  255 255 255
0.37267 -0.733414 2.35764  255 255 255
0.221682 -0.722091 2.32746  255 255 255
0.0693908 -0.719008 2.36039  255 255 255
0.139072 -0.706502 2.30484  255 255 255
-1.15839 -0.493211 2.591  255 255 255
1.08057 -0.641974 2.12008  255 255 255
0.735034 -0.60623 1.99815  255 255 255
0.085167 -0.708781 2.36105  255 255 255
0.757295 -0.599249 1.99713  255 255 255
-1.25889 -0.450394 2.60391  255 255 255
0.0277652 -0.681607 2.31301  255 255 255
-1.1293 -0.492748 2.61783  255 255 255
-0.837852 -0.560545 2.58537  255 255 255
0.262535 -0.701369 2.34113  255 255 255
-0.843056 -0.497743 2.48349  255 255 255
-0.787261 -0.487719 2.47981  255 255 255
0.795884 -0.570247 2.00536  255 255 255
0.360864 -0.665558 2.36931  255 255 255
-0.815944 -0.436737 2.41814  255 255 255
0.463932 -0.651899 2.33968  255 255 255
0.334763 -0.665413 2.35873  255 255 255
-0.595509 -0.382187 2.20765  255 255 255
0.303282 -0.652696 2.42701  255 255 255
0.365133 -0.644073 2.40242  255 255 255
0.739009 -0.545275 2.0153  255 255 255
0.275814 -0.645307 2.386  255 255 255
0.719912 -0.535314 2.02055  255 255 255
0.305887 -0.629237 2.47214  255 255 255
1.00318 -0.524584 2.04998  255 255 255
0.0984159 -0.599193 2.3468  255 255 255
0.948056 -0.508799 2.03447  255 255 255
0.335122 -0.599902 2.35688  255 255 255
0.141003 -0.588457 2.34813  255 255 255
0.984777 -0.495351 2.04433  255 255 255
0.346155 -0.578039 2.36787  255 255 255
1.0382 -0.484001 2.05819  255 255 255
0.972156 -0.470245 2.04292  255 255 255
-0.480824 -0.351691 2.37998  255 255 255
1.00884 -0.455111 2.05502  255 255 255
0.87183 -0.441413 2.03576  255 255 255
-0.479468 -0.175244 2.08551  255 255 255
-0.450133 -0.192792 2.10839  255 255 255
-0.593467 -0.498174 2.89653  255 255 255
1.06696 -0.438295 2.06589  255 255 255
-0.571878 -0.348065 2.62433  255 255 255
-0.479248 -0.225996 2.22492  255 255 255
1.03089 -0.429484 2.05729  255 255 255
0.884297 -0.419838 2.04129  255 255 255
-0.412532 -0.192765 2.1246  255 255 255
-0.41531 -0.208272 2.17349  255 255 255
-0.482036 -0.233697 2.2785  255 255 255
0.866303 -0.406642 2.04621  255 255 255
0.832081 -0.401958 2.05108  255 255 255
1.0008 -0.409193 2.05274  255 255 255
-0.392119 -0.209932 2.21705  255 255 255
0.853172 -0.39589 2.05006  255 255 255
0.168932 -0.492096 2.6968  255 255 255
0.759216 -0.39393 2.07159  255 255 255
0.787079 -0.392753 2.06203  255 255 255
1.09526 -0.407977 2.07326  255 255 255
-0.383502 -0.344748 2.60365  255 255 255
0.794684 -0.376535 2.06423  255 255 255
-0.662488 0.0599051 1.68153  255 255 255
-0.705638 0.0307224 1.93901  255 255 255
0.899983 -0.368873 2.05296  255 255 255
-0.671941 0.0710837 1.68029  255 255 255
1.06129 -0.37879 2.06745  255 255 255
1.08821 -0.374897 2.07395  255 255 255
1.06496 -0.366555 2.06771  255 255 255
1.04214 -0.362187 2.06214  255 255 255
0.0712505 -0.401287 2.71225  255 255 255
0.969257 -0.351899 2.05659  255 255 255
0.863708 -0.341659 2.06447  255 255 255
-0.267286 -0.25917 2.4949  255 255 255
-1.18034 0.14249 2.21418  255 255 255
0.0559644 -0.376792 2.72123  255 255 255
1.03215 -0.346014 2.06379  255 255 255
1.07515 -0.353121 2.07017  255 255 255
-0.797563 0.0962322 1.99724  255 255 255
0.865177 -0.327851 2.06757  255 255 255
-2.25825 0.278097 2.88531  255 255 255
-0.233855 -0.192231 2.3801  255 255 255
0.935222 -0.327448 2.06155  255 255 255
-2.04047 0.260119 2.75437  255 255 255
-1.2326 0.172284 2.2457  255 255 255
0.928789 -0.322351 2.06211  255 255 255
-0.635759 0.0987381 1.80257  255 255 255
1.0658 -0.333222 2.07133  255 255 255
-1.2673 0.198579 2.27548  255 255 255
1.00201 -0.311908 2.08476  255 255 255
-0.639787 0.117055 1.82397  255 255 255
1.06717 -0.319747 2.07295  255 255 255
-0.256681 -0.0367077 2.04623  255 255 255
-0.130587 -0.265205 2.68359  255 255 255
0.993454 -0.301369 2.06649  255 255 255
-0.148728 -0.224696 2.6256  255 255 255
-0.24898 -0.0296493 2.07854  255 255 255
-0.229531 -0.0332686 2.07951  255 255 255
-0.205692 -0.0645975 2.19368  255 255 255
-0.343628 0.0522412 1.91283  255 255 255
-0.167873 -0.174378 2.62177  255 255 255
0.898896 -0.264757 2.08015  255 255 255
1.04635 -0.287698 2.07158  255 255 255
-0.270776 0.0234336 1.98304  255 255 255
-0.167541 -0.0962122 2.46345  255 255 255
1.04694 -0.269758 2.07347  255 255 255
0.795859 -0.232164 2.11969  255 255 255
-0.313242 0.0829208 1.9003  255 255 255
0.216044 -0.10807 1.91733  255 255 255
-0.491986 0.113981 2.0681  255 255 255
0.849382 -0.225131 2.10606  255 255 255
-1.33381 0.311228 2.32103  255 255 255
1.00207 -0.239636 2.0954  255 255 255
-0.253994 0.0840758 1.97049  255 255 255
1.01673 -0.239178 2.09471  255 255 255
-0.273986 0.0860432 2.10267  255 255 255
-0.411306 0.139482 2.0956  255 255 255
-0.215772 0.0962874 1.97608  255 255 255
0.151855 -0.0933856 2.59972  255 255 255
-0.0270266 -0.0437443 2.60205  255 255 255
0.829042 -0.169213 2.12372  255 255 255
0.844775 -0.168998 2.11993  255 255 255
-0.186714 0.110265 2.04818  255 255 255
-0.269949 0.145712 1.92403  255 255 255
-0.307298 0.15082 2.08123  255 255 255
-0.0986943 0.093811 2.14097  255 255 255
0.264932 -0.0574853 2.50996  255 255 255
-0.152418 0.121215 2.04339  255 255 255
-0.147695 0.118196 2.0783  255 255 255
-0.208969 0.14482 1.97219  255 255 255
-0.0999883 0.128267 2.17334  255 255 255
-1.0792 0.355309 2.22459  255 255 255
-0.206652 0.167076 1.95267  255 255 255
0.0800646 0.0570309 2.50295  255 255 255
0.825912 -0.113825 2.14094  255 255 255
-0.0275 0.116071 2.33872  255 255 255
0.24044 0.0476551 2.45655  255 255 255
-0.0131625 0.155415 2.2738  255 255 255
0.000592817 0.160585 2.33004  255 255 255
-0.00593327 0.177793 2.30705  255 255 255
0.041323 0.168273 2.3574  255 255 255
0.299069 0.0921295 2.40101  255 255 255
0.889377 -0.0837359 2.12227  255 255 255
-0.334026 0.261802 1.91135  255 255 255
0.0849287 0.188133 2.34149  255 255 255
-0.955715 0.415668 2.21756  255 255 255
1.05446 -0.0974469 2.09424  255 255 255
0.0498754 0.286852 2.41048  255 255 255
0.938245 -0.0206339 2.116  255 255 255
0.302262 0.266664 1.89314  255 255 255
0.24499 0.276488 1.89352  255 255 255
-0.120096 0.334238 2.25285  255 255 255
-0.00809489 0.31015 2.1416  255 255 255
-0.426377 0.37815 2.1589  255 255 255
-0.136673 0.335963 2.20345  255 255 255
-0.167873 0.33929 2.14719  255 255 255
-0.299665 0.364272 2.1236  255 255 255
-0.12669 0.34828 2.23736  255 255 255
-0.460654 0.397732 2.17986  255 255 255
-0.0559618 0.330601 2.05202  255 255 255
0.125265 0.303445 2.10067  255 255 255
-0.0393089 0.340753 2.25493  255 255 255
-0.147033 0.360277 2.1412  255 255 255
-0.132818 0.364072 2.20026  255 255 255
-0.143557 0.365499 2.17848  255 255 255
0.739645 0.097333 2.20212  255 255 255
0.0677316 0.339783 2.10981  255 255 255
-0.987711 0.52822 2.12113  255 255 255
-0.127624 0.391085 2.16641  255 255 255
-0.0431561 0.386411 2.19655  255 255 255
1.02922 0.00212147 2.1051  255 255 255
0.984448 0.0303109 2.11071  255 255 255
0.799712 0.128818 2.16667  255 255 255
-0.0290888 0.419363 2.15831  255 255 255
0.879265 0.150849 2.10617  255 255 255
-0.0559967 0.483792 2.10624  255 255 255
0.524668 0.386167 2.09345  255 255 255
0.949088 0.174987 2.12062  255 255 255
0.629331 0.363847 2.07503  255 255 255
0.938021 0.206957 2.12194  255 255 255
0.950387 0.219146 2.09686  255 255 255
0.338982 0.487693 2.04509  255 255 255
0.362647 0.48329 2.04987  255 255 255
0.519899 0.441255 2.04634  255 255 255
0.654121 0.387623 2.05597  255 255 255
0.585947 0.42212 2.04484  255 255 255
0.697916 0.374933 2.05274  255 255 255
0.558355 0.438232 2.03881  255 255 255
0.646183 0.403043 1.86772  255 255 255
0.682062 0.393761 1.95544  255 255 255
0.691156 0.390402 2.04289  255 255 255
0.667327 0.405155 1.94426  255 255 255
0.749212 0.37072 1.97753  255 255 255
0.46333 0.506718 2.00316  255 255 255
0.11339 0.589945 1.95904  255 255 255
0.602762 0.473899 2.00755  255 255 255
0.412548 0.545781 1.98137  255 255 255
0.717576 0.436961 2.01251  255 255 255
0.100916 0.612195 1.94794  255 255 255
0.733859 0.436874 2.01144  255 255 255
0.14086 0.610328 1.94014  255 255 255
0.742684 0.433496 1.93346  255 255 255
0.139729 0.626067 1.93503  255 255 255
0.775837 0.438555 2.00394  255 255 255
0.541178 0.534914 1.97183  255 255 255
0.308871 0.602368 1.94822  255 255 255
0.828698 0.416791 2.01069  255 255 255
0.147969 0.632693 1.92462  255 255 255
0.339854 0.596311 1.94947  255 255 255
0.214034 0.626667 1.93634  255 255 255
0.514101 0.553093 1.96489  255 255 255
0.483631 0.568293 1.9594  255 255 255
0.193833 0.637755 1.92548  255 255 255
0.730209 0.478349 1.98843  255 255 255
0.288977 0.631116 1.92613  255 255 255
0.333238 0.621379 1.93336  255 255 255
0.160138 0.660391 1.90543  255 255 255
0.823532 0.4592 1.99021  255 255 255
0.224201 0.657503 1.91175  255 255 255
0.735135 0.509349 1.97087  255 255 255
0.241294 0.662512 1.90703  255 255 255
0.315714 0.675054 1.89813  255 255 255
0.346099 0.675302 1.89497  255 255 255
0.279434 -0.0336996 2.48846  255 255 255
-0.194268 -0.957365 2.48747  255 255 255
-0.391829 -0.927214 2.49557  255 255 255
0.66785 -0.946575 2.40598  255 255 255
-0.282847 -0.946398 2.5119  255 255 255
-0.480765 -0.90697 2.51219  255 255 255
-0.63645 -0.833576 2.45157  255 255 255
-0.377734 -0.933374 2.54065  255 255 255
-0.755868 -0.71793 2.3088  255 255 255
-0.566832 -0.880541 2.52326  255 255 255
-0.750118 -0.752013 2.39911  255 255 255
0.769486 -0.84422 2.39016  255 255 255
0.476021 -0.760742 2.20742  255 255 255
-0.248708 -0.658245 2.17546  255 255 255
0.481923 -0.744663 2.22262  255 255 255
-0.24961 -0.671464 2.23805  255 255 255
-0.288885 -0.634417 2.21626  255 255 255
-0.61828 -0.539179 2.22897  255 255 255
0.363243 -0.754246 2.35188  255 255 255
-0.163842 -0.697933 2.32126  255 255 255
0.393774 -0.722127 2.26139  255 255 255
0.448427 -0.719562 2.25438  255 255 255
-0.251658 -0.61355 2.19818  255 255 255
-0.0425893 -0.718423 2.35842  255 255 255
-0.232299 -0.613142 2.22874  255 255 255
-1.08927 -0.606563 2.75615  255 255 255
0.759394 -0.610513 1.99522  255 255 255
0.398202 -0.724291 2.36399  255 255 255
-0.243039 -0.589942 2.22466  255 255 255
0.116386 -0.695476 2.3152  255 255 255
0.775825 -0.599327 2.00042  255 255 255
0.0799439 -0.687857 2.31257  255 255 255
0.758575 -0.598241 1.99786  255 255 255
1.09867 -0.628107 2.12964  255 255 255
-0.356412 -0.629254 2.41797  255 255 255
-0.841404 -0.49684 2.47963  255 255 255
-0.815903 -0.528144 2.5277  255 255 255
-0.272935 -0.56699 2.24484  255 255 255
-1.30136 -0.398576 2.6218  255 255 255
-0.787035 -0.486009 2.48159  255 255 255
0.345086 -0.67883 2.35657  255 255 255
0.230553 -0.663942 2.4529  255 255 255
-0.458867 -0.524125 2.45354  255 255 255
0.316536 -0.639271 2.38121  255 255 255
0.315599 -0.630936 2.46565  255 255 255
0.71489 -0.525404 2.02484  255 255 255
0.191853 -0.625186 2.57717  255 255 255
0.225949 -0.591277 2.35337  255 255 255
-0.14584 -0.644966 2.79202  255 255 255
1.0658 -0.491397 2.06714  255 255 255
-0.314937 -0.417697 2.36557  255 255 255
0.97182 -0.458633 2.04254  255 255 255
0.999685 -0.467033 2.07298  255 255 255
-0.584184 -0.501263 2.8892  255 255 255
-0.449705 -0.192718 2.10797  255 255 255
1.05647 -0.439808 2.06212  255 255 255
1.03111 -0.431187 2.05676  255 255 255
1.06821 -0.438159 2.06259  255 255 255
-0.598491 -0.372278 2.71087  255 255 255
-0.403582 -0.2258 2.21051  255 255 255
-0.418512 -0.187611 2.13023  255 255 255
-0.384262 -0.214728 2.21284  255 255 255
0.836472 -0.400346 2.04899  255 255 255
0.999883 -0.408968 2.05296  255 255 255
1.08051 -0.420436 2.06083  255 255 255
0.854374 -0.395403 2.05073  255 255 255
0.788584 -0.392974 2.06213  255 255 255
-0.462622 -0.0942492 2.04786  255 255 255
-0.407308 -0.107568 2.08013  255 255 255
-0.0499068 -0.448716 2.80344  255 255 255
1.04834 -0.371169 2.06537  255 255 255
1.0625 -0.367956 2.06602  255 255 255
-1.69943 0.180428 2.53579  255 255 255
0.967822 -0.352434 2.05695  255 255 255
0.851398 -0.335469 2.06855  255 255 255
1.07519 -0.353663 2.06962  255 255 255
1.03233 -0.343921 2.06385  255 255 255
1.07672 -0.338374 2.07265  255 255 255
1.064 -0.333782 2.06799  255 255 255
-0.737624 0.103985 2.00481  255 255 255
-0.189173 -0.132472 2.18194  255 255 255
-0.201879 -0.239487 2.60341  255 255 255
1.00051 -0.313023 2.08472  255 255 255
-0.252244 -0.0574647 2.10245  255 255 255
-0.233091 -0.0844255 2.18528  255 255 255
1.06784 -0.319515 2.07126  255 255 255
1.05649 -0.315468 2.07125  255 255 255
0.814769 -0.282822 2.0974  255 255 255
0.993778 -0.300469 2.06718  255 255 255
-0.199765 -0.0986537 2.30845  255 255 255
-0.142743 -0.231376 2.67971  255 255 255
-0.260135 -0.011779 2.03414  255 255 255
-0.207793 -0.0610995 2.19286  255 255 255
0.856184 -0.268843 2.08837  255 255 255
-0.358377 0.0525607 1.92632  255 255 255
-0.218793 -0.0163973 2.03214  255 255 255
0.989967 -0.282726 2.0695  255 255 255
-0.160214 -0.177821 2.61814  255 255 255
-0.27086 0.0278468 1.9505  255 255 255
-0.267154 0.0200409 1.97944  255 255 255
0.980275 -0.267744 2.09073  255 255 255
-0.250091 0.0349901 2.00636  255 255 255
-0.208336 0.0137139 2.04152  255 255 255
-0.326266 0.0827663 1.91239  255 255 255
-0.168598 -0.0660587 2.47758  255 255 255
-0.161809 -0.0335797 2.35644  255 255 255
0.978813 -0.244662 2.07548  255 255 255
-1.33649 0.311558 2.32308  255 255 255
-0.342464 0.0795518 2.13693  255 255 255
-0.193434 0.0553345 2.02316  255 255 255
1.02245 -0.240367 2.07672  255 255 255
0.98948 -0.225229 2.07787  255 255 255
-0.000732935 -0.0795553 2.59397  255 255 255
-0.339952 0.108949 2.12058  255 255 255
-0.292775 0.122275 1.93115  255 255 255
-0.243516 0.108114 1.96146  255 255 255
0.973754 -0.197147 2.08057  255 255 255
-0.222838 0.109829 2.09031  255 255 255
-0.158321 0.0973873 2.0741  255 255 255
-0.272466 0.14605 1.92483  255 255 255
-0.106643 0.0979771 2.13682  255 255 255
0.263071 -0.0503422 2.50398  255 255 255
-0.150961 0.121788 2.08706  255 255 255
-0.314231 0.176982 2.11482  255 255 255
-0.116887 0.125645 2.19408  255 255 255
0.980115 -0.160732 2.08954  255 255 255
-0.81952 0.320114 2.14949  255 255 255
0.253075 0.047371 2.43896  255 255 255
-0.0263688 0.155906 2.28601  255 255 255
0.973048 -0.118904 2.10868  255 255 255
-0.005997 0.179366 2.30507  255 255 255
0.0839325 0.156423 2.40476  255 255 255
0.0231453 0.185366 2.3385  255 255 255
-0.33159 0.260437 1.90825  255 255 255
0.0755339 0.190958 2.35089  255 255 255
0.426437 0.0672439 2.38115  255 255 255
-0.668606 0.348512 2.01631  255 255 255
0.160696 0.171405 2.38304  255 255 255
-0.387628 0.286653 1.9274  255 255 255
0.790297 0.0184927 2.10991  255 255 255
0.982434 -0.0491243 2.10455  255 255 255
0.191398 0.266862 1.89187  255 255 255
-0.156436 0.320356 2.1866  255 255 255
-0.0187851 0.310244 2.35172  255 255 255
-0.398648 0.372331 2.13079  255 255 255
-0.436092 0.371265 2.02047  255 255 255
-0.136697 0.339696 2.20792  255 255 255
-0.273372 0.363408 2.09849  255 255 255
-0.330689 0.378493 2.12023  255 255 255
-0.0445526 0.339618 2.25653  255 255 255
-0.0947501 0.350632 2.2117  255 255 255
0.991093 -0.0137407 2.10758  255 255 255
-0.145412 0.35809 2.13244  255 255 255
0.990874 -0.00309723 2.10873  255 255 255
-0.0302801 0.419246 2.15521  255 255 255
0.606836 0.278584 2.1491  255 255 255
0.869994 0.14109 2.14093  255 255 255
-0.0108353 0.460984 2.21822  255 255 255
-0.012345 0.478221 2.20533  255 255 255
1.15339 0.0224633 2.21712  255 255 255
-0.0590276 0.498889 2.12791  255 255 255
0.67406 0.296159 2.09997  255 255 255
0.532447 0.384082 2.09373  255 255 255
0.948528 0.174027 2.12183  255 255 255
0.626704 0.364169 2.07392  255 255 255
0.64571 0.37206 2.0694  255 255 255
0.95363 0.205837 2.12013  255 255 255
0.33851 0.48691 2.047  255 255 255
0.587092 0.40564 2.05845  255 255 255
0.593755 0.408344 1.92753  255 255 255
1.01279 0.193846 2.11675  255 255 255
0.695249 0.373752 2.05406  255 255 255
0.584468 0.423014 2.042  255 255 255
0.537355 0.449426 2.0341  255 255 255
0.6857 0.392848 2.04353  255 255 255
0.0520069 0.569136 1.97826  255 255 255
0.614593 0.430827 2.03536  255 255 255
0.668919 0.408182 2.03493  255 255 255
0.727304 0.398017 2.03113  255 255 255
0.609272 0.452427 2.01576  255 255 255
0.45667 0.507336 2.00074  255 255 255
0.575782 0.470691 2.01348  255 255 255
0.495003 0.509471 1.85905  255 255 255
0.143247 0.605939 1.95381  255 255 255
0.734931 0.435015 2.01253  255 255 255
0.491589 0.533213 1.97631  255 255 255
0.827007 0.418324 2.01225  255 255 255
0.313041 0.600586 1.94229  255 255 255
0.338915 0.595475 1.94849  255 255 255
0.139027 0.645961 1.91838  255 255 255
0.517822 0.565003 1.95926  255 255 255
0.546754 0.558473 1.95253  255 255 255
0.18199 0.655044 1.90336  255 255 255
0.493636 0.563736 1.76197  255 255 255
0.821783 0.460739 1.99067  255 255 255
0.223813 0.65764 1.9089  255 255 255
0.733224 0.507069 1.97137  255 255 255
0.360249 0.651024 1.90973  255 255 255
0.342566 0.674745 1.89612  255 255 255
0.701853 0.564737 1.94277  255 255 255
-0.185854 -0.686915 2.17013  255 255 255
-0.250569 -0.658958 2.1845  255 255 255
0.393336 -0.720653 2.26267  255 255 255
-0.304381 -0.631134 2.26385  255 255 255
-0.332996 -0.600357 2.2616  255 255 255
0.0357556 -0.696193 2.30724  255 255 255
-0.410486 -0.586686 2.35311  255 255 255
-0.354578 -0.634198 2.42412  255 255 255
-0.287979 -0.579171 2.28776  255 255 255
0.78768 -0.570456 2.00171  255 255 255
-0.775926 -0.481754 2.47558  255 255 255
0.831718 -0.568764 2.01133  255 255 255
-0.690071 -0.431924 2.32582  255 255 255
-0.120168 -0.596694 2.34396  255 255 255
0.308226 -0.644619 2.44513  255 255 255
0.807985 -0.534331 2.0112  255 255 255
-0.527221 -0.479005 2.42722  255 255 255
0.261769 -0.628814 2.40101  255 255 255
-1.04923 -0.222007 2.36277  255 255 255
-0.0513946 -0.594185 2.47202  255 255 255
1.09721 -0.515978 2.08967  255 255 255
0.716985 -0.495508 2.04367  255 255 255
-0.474353 -0.356154 2.35885  255 255 255
0.0341845 -0.538554 2.37624  255 255 255
1.05287 -0.480143 2.06325  255 255 255
1.14161 -0.499378 2.14419  255 255 255
-0.566329 -0.441834 2.69286  255 255 255
-0.598884 -0.436179 2.79511  255 255 255
0.997682 -0.43171 2.0487  255 255 255
0.890072 -0.412891 2.04642  255 255 255
-0.460673 -0.0996974 2.04241  255 255 255
0.910693 -0.38712 2.04925  255 255 255
-0.396441 -0.335783 2.59109  255 255 255
0.820734 -0.377471 2.05862  255 255 255
-0.34436 -0.370652 2.66309  255 255 255
1.0469 -0.375832 2.06537  255 255 255
-1.08079 0.107191 2.15335  255 255 255
-0.255658 -0.250783 2.39752  255 255 255
-0.281257 -0.239513 2.44838  255 255 255
-1.61175 0.210522 2.47883  255 255 255
-0.262292 -0.182939 2.38122  255 255 255
1.02887 -0.339698 2.07567  255 255 255
-1.01814 0.139552 2.11786  255 255 255
-0.320474 -0.175662 2.44629  255 255 255
-0.384265 0.00455163 1.92847  255 255 255
-0.136212 -0.283652 2.67565  255 255 255
0.842 -0.297464 2.08413  255 255 255
1.00076 -0.317247 2.08246  255 255 255
-0.258905 -0.0479273 2.04224  255 255 255
-0.258836 -0.0648244 2.11037  255 255 255
0.81707 -0.287752 2.09353  255 255 255
1.0501 -0.313259 2.08102  255 255 255
1.06865 -0.316643 2.07179  255 255 255
-0.25247 -0.0180989 1.98811  255 255 255
0.994902 -0.295608 2.06806  255 255 255
-0.389628 0.0576804 1.93212  255 255 255
-0.301861 0.0313011 1.93279  255 255 255
-0.213816 -0.0576098 2.20233  255 255 255
-0.179944 -0.153425 2.51344  255 255 255
-0.169234 -0.0742728 2.51296  255 255 255
0.00866202 -0.0534458 2.1687  255 255 255
-1.37354 0.317618 2.34897  255 255 255
-0.0587814 -0.112483 2.68028  255 255 255
-0.292579 0.0704757 2.133  255 255 255
0.116878 -0.109533 2.61037  255 255 255
0.988495 -0.221557 2.07991  255 255 255
-0.436615 0.141676 2.0807  255 255 255
-0.0696762 -0.0222369 2.5109  255 255 255
0.236107 -0.103 2.55583  255 255 255
-0.199728 0.0952511 2.06459  255 255 255
0.97007 -0.202008 2.10271  255 255 255
-0.254058 0.13048 1.9212  255 255 255
-0.156424 0.0971982 2.0679  255 255 255
0.102189 -0.0293474 2.55651  255 255 255
0.241555 -0.0352592 2.50345  255 255 255
-0.208829 0.152696 1.9844  255 255 255
-0.163453 0.140029 2.01491  255 255 255
0.972252 -0.163422 2.10272  255 255 255
0.315911 0.00793507 2.449  255 255 255
0.090098 0.154385 2.37948  255 255 255
0.24644 0.109231 2.40557  255 255 255
-0.340925 0.252949 1.91575  255 255 255
0.048201 0.185522 2.28941  255 255 255
0.440999 0.0755303 2.36329  255 255 255
1.3154 -0.190982 2.43873  255 255 255
0.269747 0.255298 1.88144  255 255 255
-0.00259686 0.317299 2.13559  255 255 255
-0.0351937 0.327956 2.28851  255 255 255
-0.174487 0.349218 2.14885  255 255 255
0.749456 0.0910208 2.19991  255 255 255
-0.0368291 0.363698 2.23878  255 255 255
0.684023 0.178618 1.99864  255 255 255
-0.136762 0.389825 2.1457  255 255 255
-0.0153184 0.455904 2.22136  255 255 255
-0.00955392 0.480619 2.19843  255 255 255
-0.0201103 0.479044 2.08198  255 255 255
0.541617 0.382058 2.08922  255 255 255
0.618851 0.36675 2.07263  255 255 255
0.288901 0.505984 2.02555  255 255 255
0.532354 0.455373 2.03168  255 255 255
0.446302 0.508469 1.99805  255 255 255
0.120052 0.633421 1.92995  255 255 255
0.705331 0.471488 1.99459  255 255 255
0.268815 0.629412 1.9316  255 255 255
0.314819 0.623815 1.93152  255 255 255
0.701147 0.538205 1.96071  255 255 255
0.675138 0.570647 1.93856  255 255 255
-0.25147 0.0439227 2.00978  255 255 255
0.151173 0.626308 1.93843  255 255 255
0.398534 0.673525 1.90541  255 255 255
