ply
format ascii 1.0
element vertex 1238
property float x
property float y
property float z
property uchar red
property uchar green
property uchar blue
end_header
9.40009 26.5145 -47.3062  255 255 255
2.67435 25.031 -43.8981  255 255 255
3.0622 24.9864 -44.2677  255 255 255
-19.5132 20.2603 -32.6661  255 255 255
-8.6704 22.2683 -38.5466  255 255 255
-21.5285 21.2699 -36.0915  255 255 255
17.9921 26.4138 -52.5548  255 255 255
7.13904 23.8206 -47.5097  255 255 255
7.7171 23.8165 -47.9541  255 255 255
-6.96832 21.2023 -40.4656  255 255 255
-14.3278 19.296 -37.4104  255 255 255
-1.64597 20.9986 -44.0047  255 255 255
2.25986 21.5393 -46.293  255 255 255
3.22827 19.7445 -48.2768  255 255 255
-3.82614 17.5469 -45.0938  255 255 255
15.6036 20.1519 -55.5847  255 255 255
4.79188 18.2322 -49.4637  255 255 255
1.05478 17.4474 -48.0558  255 255 255
-0.489501 16.6881 -48.2586  255 255 255
-17.4881 13.5058 -39.2919  255 255 255
-13.1938 13.5247 -42.2256  255 255 255
-14.7025 13.2176 -41.7313  255 255 255
-29.703 15.6022 -53.5527  255 255 255
-18.78 12.4511 -39.3788  255 255 255
-18.2135 12.5032 -39.7609  255 255 255
2.82611 14.6605 -51.9196  255 255 255
-18.3853 12.1959 -39.7595  255 255 255
-4.08577 13.2052 -48.189  255 255 255
6.78825 13.3397 -50.5175  255 255 255
5.69815 12.9226 -49.5358  255 255 255
-13.8963 11.4516 -43.2281  255 255 255
-11.0648 11.649 -45.0225  255 255 255
2.52801 10.6393 -46.9281  255 255 255
-20.3072 9.84986 -42.116  255 255 255
3.17745 9.12226 -45.2474  255 255 255
-15.4006 8.79618 -44.6834  255 255 255
-0.968276 6.87871 -42.1767  255 255 255
-1.66514 6.75022 -42.1281  255 255 255
-2.0713 6.24799 -41.5149  255 255 255
-2.58605 4.21554 -24.5948  255 255 255
-5.04273 5.2217 -40.4014  255 255 255
-2.7413 4.17127 -24.9197  255 255 255
-3.87984 4.37711 -29.3569  255 255 255
-5.81837 4.55945 -39.5031  255 255 255
-1.16296 3.58072 -22.4342  255 255 255
-2.95952 3.43611 -24.1902  255 255 255
-6.85772 4.0017 -38.5437  255 255 255
-3.13051 3.17648 -24.2125  255 255 255
-3.28861 3.12876 -24.6869  255 255 255
-7.77916 2.97345 -37.2394  255 255 255
-5.4388 2.7279 -26.9465  255 255 255
-11.9596 53.5899 -63.2894  255 255 255
-23.1024 34.6402 -43.9696  255 255 255
-24.5784 34.9283 -44.8223  255 255 255
-22.4941 33.7861 -44.8439  255 255 255
-32.1729 35.055 -50.3587  255 255 255
13.1597 29.6421 -46.8677  255 255 255
-0.601139 24.9037 -41.9649  255 255 255
-17.4153 20.9586 -33.598  255 255 255
-10.0977 22.0107 -37.7723  255 255 255
14.0276 26.2849 -50.1911  255 255 255
17.8624 27.0094 -52.3742  255 255 255
-8.66366 21.4972 -39.2835  255 255 255
14.7834 25.8246 -51.2492  255 255 255
0.654421 22.2852 -44.7885  255 255 255
8.87714 22.7728 -49.3107  255 255 255
14.0241 22.3019 -53.1013  255 255 255
14.113 21.4106 -53.3924  255 255 255
11.7349 20.6451 -52.0774  255 255 255
11.7902 19.6551 -53.3794  255 255 255
-5.78474 16.0974 -45.1122  255 255 255
3.89974 16.7833 -50.19  255 255 255
-12.8895 14.697 -41.5425  255 255 255
-10.673 13.8579 -43.3714  255 255 255
-14.8012 13.0351 -41.8155  255 255 255
-0.348648 13.8131 -50.2926  255 255 255
-18.1204 9.32345 -41.6714  255 255 255
-19.1988 8.96547 -41.2526  255 255 255
4.34379 8.73407 -44.5899  255 255 255
-18.0788 8.36985 -42.8075  255 255 255
-1.76424 6.1898 -41.4712  255 255 255
-21.5348 5.76453 -41.1638  255 255 255
-2.54643 4.26073 -24.6867  255 255 255
-0.730586 4.06729 -22.6707  255 255 255
-6.11199 5.13766 -39.7082  255 255 255
-4.3887 4.71835 -39.4838  255 255 255
-2.57389 3.80329 -24.0359  255 255 255
-10.4822 4.00707 -38.9674  255 255 255
-4.3246 3.48135 -27.908  255 255 255
-4.50655 3.7683 -38.241  255 255 255
-5.04731 3.4227 -27.9847  255 255 255
-8.04691 3.49784 -37.8632  255 255 255
-3.2551 3.0148 -24.3767  255 255 255
8.01142 57.6114 -68.0385  255 255 255
-15.9366 51.7123 -61.2652  255 255 255
-8.25546 23.0215 -38.5476  255 255 255
-11.2663 21.9311 -37.2001  255 255 255
-18.6847 20.0169 -33.6572  255 255 255
-0.0292852 22.8162 -43.1886  255 255 255
2.79238 22.3169 -46.076  255 255 255
-14.076 15.9792 -40.0523  255 255 255
8.96779 18.8908 -52.5378  255 255 255
1.02229 17.211 -48.6246  255 255 255
1.09298 14.5598 -50.6455  255 255 255
-18.1519 10.0198 -41.7983  255 255 255
-18.124 9.99849 -41.6365  255 255 255
5.10238 9.30611 -44.7663  255 255 255
-2.93277 4.15661 -27.5725  255 255 255
-7.43128 3.67844 -38.3439  255 255 255
-6.97489 43.2674 -52.5495  255 255 255
-6.97813 43.2898 -52.5773  255 255 255
-16.6218 40.8574 -49.0653  255 255 255
-10.7178 41.8179 -50.9476  255 255 255
-14.9737 40.9879 -49.5949  255 255 255
-14.9737 40.9879 -49.5949  255 255 255
-7.74626 41.654 -51.5979  255 255 255
7.1567 26.2146 -45.7633  255 255 255
-37.3672 27.9392 -63.0332  255 255 255
12.8318 18.7264 -55.215  255 255 255
11.6713 18.4751 -54.6002  255 255 255
0.041186 15.0946 -49.3159  255 255 255
-16.6766 12.6605 -40.4104  255 255 255
1.71096 14.5033 -50.7144  255 255 255
-2.05807 11.032 -47.92  255 255 255
-17.467 9.78086 -42.5579  255 255 255
-3.10695 4.24277 -27.7776  255 255 255
-3.2647 3.59869 -26.7727  255 255 255
-13.6 40.6615 -49.8564  255 255 255
-0.604411 32.3605 -41.9133  255 255 255
7.67819 33.0751 -44.7255  255 255 255
-0.211806 16.8634 -47.924  255 255 255
-3.54511 15.5633 -46.3773  255 255 255
-17.2496 11.5121 -41.041  255 255 255
8.64501 9.55836 -45.3091  255 255 255
-26.3223 51.1767 -59.8991  255 255 255
-12.5036 41.5464 -50.3722  255 255 255
14.6803 21.0855 -54.0111  255 255 255
11.403 20.2462 -51.6445  255 255 255
2.7401 17.0018 -49.149  255 255 255
-4.74243 15.5169 -46.1167  255 255 255
-0.763622 14.3676 -48.7281  255 255 255
-19.0117 20.8963 -33.34  255 255 255
-2.65541 15.2148 -47.5858  255 255 255
4.57551 20.2374 -48.4424  255 255 255
-7.46995 12.6876 -47.2551  255 255 255
15.5095 17.2492 -32.8917  255 255 255
15.4967 17.1748 -33.0755  255 255 255
15.4767 17.1651 -33.0446  255 255 255
15.0164 16.9347 -34.2312  255 255 255
14.3247 13.595 -26.1692  255 255 255
15.0942 16.6624 -34.3307  255 255 255
8.26956 22.8708 -49.3008  255 255 255
16.0815 22.6716 -53.7546  255 255 255
17.2097 22.6611 -54.2307  255 255 255
14.8026 22.4155 -53.2617  255 255 255
8.64689 22.1292 -50.3241  255 255 255
6.99122 21.5831 -48.8185  255 255 255
1.97924 21.2551 -45.9543  255 255 255
-0.0383935 21.1684 -44.9373  255 255 255
2.27063 21.2657 -46.1472  255 255 255
14.9112 15.1576 -35.636  255 255 255
14.9112 15.1576 -35.636  255 255 255
15.0846 15.1063 -35.588  255 255 255
5.03608 21.3502 -48.1455  255 255 255
17.2697 21.8453 -55.0822  255 255 255
14.4202 21.2775 -53.4451  255 255 255
17.8362 21.5418 -55.862  255 255 255
17.8362 21.5418 -55.862  255 255 255
15.3401 10.9345 -26.0211  255 255 255
7.23248 20.628 -49.7922  255 255 255
14.5508 11.2923 -27.4254  255 255 255
14.7216 11.1958 -27.2015  255 255 255
15.3488 10.5969 -25.994  255 255 255
15.4629 10.3766 -25.5651  255 255 255
5.66063 20.1971 -48.9906  255 255 255
14.9024 10.8857 -26.975  255 255 255
6.42087 20.1583 -49.6367  255 255 255
6.81409 20.156 -49.8391  255 255 255
15.6775 10.0013 -25.2741  255 255 255
15.5166 20.3777 -55.3244  255 255 255
15.1576 10.3002 -26.3222  255 255 255
15.7924 9.82071 -25.5842  255 255 255
14.6837 13.7672 -37.0661  255 255 255
10.1269 19.6841 -52.2393  255 255 255
9.86024 19.7495 -52.4217  255 255 255
15.6981 9.51593 -25.6776  255 255 255
15.241 13.2001 -36.4618  255 255 255
14.6483 13.6477 -37.6248  255 255 255
4.37604 19.0967 -48.9421  255 255 255
14.8005 13.5112 -37.5796  255 255 255
1.20211 18.9976 -47.1965  255 255 255
15.3499 9.72145 -26.7622  255 255 255
1.39732 18.9964 -47.4936  255 255 255
14.7002 13.2699 -37.6385  255 255 255
14.8029 9.9203 -27.7931  255 255 255
15.4196 9.37471 -26.5646  255 255 255
11.0789 19.0648 -54.0974  255 255 255
14.4278 10.1156 -28.5649  255 255 255
0.996784 18.5638 -47.3008  255 255 255
15.5365 12.3299 -36.022  255 255 255
15.2184 9.37569 -27.0512  255 255 255
15.8959 8.751 -25.7327  255 255 255
14.5883 9.80784 -28.4682  255 255 255
15.2762 9.20867 -27.022  255 255 255
14.9321 9.41826 -27.6384  255 255 255
14.4719 9.83577 -28.7833  255 255 255
-0.164528 18.1596 -46.8489  255 255 255
5.75919 18.2617 -50.4906  255 255 255
14.5037 9.69476 -28.5478  255 255 255
16.5213 7.98179 -24.4045  255 255 255
16.4151 11.0771 -34.5234  255 255 255
15.3882 8.86627 -27.1087  255 255 255
5.4507 17.9533 -50.5969  255 255 255
-0.556485 17.8297 -46.8344  255 255 255
0.546049 17.7751 -47.4654  255 255 255
9.98765 17.8103 -53.5301  255 255 255
14.7624 9.09583 -28.8635  255 255 255
14.6316 9.05225 -28.8025  255 255 255
15.713 8.18753 -26.5602  255 255 255
14.5411 9.03577 -28.9239  255 255 255
15.3384 8.42989 -27.5668  255 255 255
14.8888 8.81297 -28.8074  255 255 255
16.6816 7.30502 -24.7949  255 255 255
14.3895 9.03256 -29.373  255 255 255
14.7093 8.75091 -28.7055  255 255 255
3.90949 17.2115 -50.2088  255 255 255
3.90949 17.2115 -50.2088  255 255 255
14.6725 8.72752 -28.9354  255 255 255
14.9184 8.51058 -28.4765  255 255 255
14.7857 8.60267 -28.8932  255 255 255
15.2959 10.8834 -37.4549  255 255 255
16.6314 9.66255 -34.6979  255 255 255
16.0125 7.46276 -26.8436  255 255 255
16.2051 9.95912 -35.9102  255 255 255
15.339 7.7761 -27.7822  255 255 255
15.4008 7.71616 -27.7461  255 255 255
15.7041 7.41738 -27.3762  255 255 255
15.6727 7.3456 -27.2605  255 255 255
14.3249 8.37827 -30.1246  255 255 255
15.5259 7.48097 -27.8326  255 255 255
15.9975 6.96459 -26.6285  255 255 255
14.5236 8.10008 -29.8552  255 255 255
3.76909 16.0548 -51.4257  255 255 255
14.6255 10.7008 -39.817  255 255 255
14.5705 7.81029 -30.0273  255 255 255
15.2899 10.0066 -38.5584  255 255 255
14.1453 8.1087 -30.898  255 255 255
14.1453 8.1087 -30.898  255 255 255
15.5317 6.94428 -27.8318  255 255 255
14.6192 7.70263 -30.0305  255 255 255
16.3343 8.99774 -36.2514  255 255 255
14.525 7.65284 -30.317  255 255 255
15.3506 7.03128 -28.5836  255 255 255
15.3638 7.03568 -28.6093  255 255 255
15.5883 6.7614 -28.12  255 255 255
15.5587 6.75543 -28.091  255 255 255
15.0548 7.14924 -29.2843  255 255 255
15.5453 6.67543 -27.967  255 255 255
14.837 7.07803 -29.1833  255 255 255
15.2294 6.91177 -29.0308  255 255 255
14.351 7.55101 -30.9165  255 255 255
14.7104 9.97037 -40.4131  255 255 255
14.6917 9.81974 -40.3438  255 255 255
14.7409 9.73317 -40.1028  255 255 255
8.9658 13.5541 -50.8195  255 255 255
14.742 9.48169 -40.3582  255 255 255
8.85294 13.2369 -50.3025  255 255 255
14.8301 9.346 -40.1876  255 255 255
14.5964 6.88474 -30.3647  255 255 255
15.1625 6.44311 -29.3589  255 255 255
14.9998 6.51086 -29.9143  255 255 255
16.1711 5.63819 -27.3906  255 255 255
16.1711 5.63819 -27.3906  255 255 255
14.6226 6.79622 -30.8417  255 255 255
-1.87518 14.5069 -48.1778  255 255 255
15.2442 6.16183 -29.5577  255 255 255
15.3492 5.95025 -29.4283  255 255 255
7.0216 12.4653 -49.3124  255 255 255
16.8199 4.83248 -26.3876  255 255 255
15.3802 5.758 -29.0755  255 255 255
15.0887 5.91499 -29.8688  255 255 255
16.8987 4.64259 -26.1038  255 255 255
15.0444 5.87519 -29.9489  255 255 255
15.1469 5.80232 -29.737  255 255 255
16.6417 4.76861 -26.7177  255 255 255
16.0382 7.58893 -38.242  255 255 255
15.3934 5.60867 -29.4726  255 255 255
15.5544 5.43429 -29.1532  255 255 255
15.5917 5.2971 -29.0725  255 255 255
15.6133 5.30628 -29.0987  255 255 255
-3.68315 13.843 -48.0759  255 255 255
15.7667 5.08796 -28.8129  255 255 255
15.7667 5.08796 -28.8129  255 255 255
15.8632 5.04237 -28.6857  255 255 255
16.2745 4.67379 -27.4542  255 255 255
16.49 4.56809 -27.2376  255 255 255
16.49 4.56809 -27.2376  255 255 255
15.4392 5.29126 -29.5731  255 255 255
16.4346 4.42486 -27.1175  255 255 255
16.4342 4.49035 -27.4753  255 255 255
14.684 5.70471 -31.2462  255 255 255
15.2352 5.31071 -30.083  255 255 255
15.9319 4.76996 -28.3353  255 255 255
4.30868 11.8554 -48.4864  255 255 255
16.4516 4.41443 -27.5263  255 255 255
14.562 5.6578 -31.7851  255 255 255
15.0779 7.54996 -40.9856  255 255 255
15.7962 4.69642 -29.0271  255 255 255
15.2669 5.03617 -30.2257  255 255 255
16.5218 4.14071 -27.5329  255 255 255
15.2305 7.1576 -40.6214  255 255 255
6.53906 10.3578 -46.6708  255 255 255
16.8087 3.7842 -27.1344  255 255 255
2.36762 11.5015 -48.0518  255 255 255
15.1788 4.85455 -30.5741  255 255 255
15.1748 4.85467 -30.5666  255 255 255
15.3494 4.68337 -30.6031  255 255 255
16.9259 3.49578 -26.7902  255 255 255
5.71951 10.056 -46.3677  255 255 255
4.8262 10.0351 -46.0364  255 255 255
15.2443 4.45635 -30.694  255 255 255
16.1054 3.58721 -28.9922  255 255 255
2.8761 9.96537 -45.8317  255 255 255
7.97203 8.34534 -44.1521  255 255 255
14.7202 4.36468 -32.2689  255 255 255
14.6581 4.32483 -32.3466  255 255 255
14.6581 4.32483 -32.3466  255 255 255
2.46469 5.33289 -24.2394  255 255 255
2.19785 9.71485 -45.8266  255 255 255
14.5127 4.35421 -33.1083  255 255 255
16.4408 2.91622 -28.5568  255 255 255
16.8133 2.72166 -28.1289  255 255 255
16.9241 2.54267 -27.6785  255 255 255
17.1201 2.35927 -27.3906  255 255 255
16.7029 2.5744 -28.1426  255 255 255
16.7464 2.5772 -28.1996  255 255 255
15.8912 3.10057 -30.1523  255 255 255
0.426562 5.48053 -24.4175  255 255 255
14.2161 4.06717 -33.9338  255 255 255
14.1903 4.06601 -33.8961  255 255 255
14.1519 4.06553 -33.8367  255 255 255
14.0979 4.06453 -33.8924  255 255 255
14.3705 3.9293 -33.4867  255 255 255
14.2664 3.88848 -33.5825  255 255 255
15.2239 3.32704 -31.9064  255 255 255
16.6381 2.29831 -28.4083  255 255 255
-0.204123 5.28006 -23.9089  255 255 255
15.267 3.13948 -31.6645  255 255 255
15.3423 2.99983 -31.5332  255 255 255
15.5739 2.78591 -30.724  255 255 255
15.5739 2.78591 -30.724  255 255 255
1.25737 8.69321 -44.7832  255 255 255
16.5867 2.18679 -28.9285  255 255 255
16.5867 2.18679 -28.9285  255 255 255
-0.709901 5.32736 -24.4634  255 255 255
-0.709901 5.32736 -24.4634  255 255 255
-0.604851 5.27626 -24.3228  255 255 255
17.1435 1.80709 -27.946  255 255 255
3.05187 7.74498 -43.1897  255 255 255
14.8479 3.11365 -32.9629  255 255 255
14.9012 3.10214 -32.8823  255 255 255
1.48196 4.40254 -23.1108  255 255 255
3.4914 3.72058 -22.3336  255 255 255
16.5539 1.83873 -29.2549  255 255 255
1.35881 4.27748 -22.972  255 255 255
14.8711 2.87594 -32.9595  255 255 255
17.1855 1.43651 -27.831  255 255 255
14.8809 2.80597 -32.9237  255 255 255
14.9893 2.71259 -32.7548  255 255 255
17.2094 1.22353 -28.1974  255 255 255
15.1193 2.42553 -32.4482  255 255 255
15.1193 2.42553 -32.4482  255 255 255
17.13 1.20435 -28.3157  255 255 255
16.438 1.56117 -29.7073  255 255 255
16.8582 1.27367 -28.6639  255 255 255
-1.65373 4.84321 -24.141  255 255 255
17.0211 1.12157 -28.6529  255 255 255
0.388415 7.26653 -42.7488  255 255 255
2.94775 3.15974 -21.6937  255 255 255
16.2594 1.33394 -30.7091  255 255 255
15.8392 1.54121 -31.5469  255 255 255
17.1116 0.74613 -28.5429  255 255 255
17.1087 0.750908 -28.6651  255 255 255
15.8987 1.52147 -31.9786  255 255 255
15.0225 1.91234 -33.1499  255 255 255
16.541 0.958425 -29.8028  255 255 255
14.9191 1.84617 -33.5727  255 255 255
16.6789 0.867295 -30.0077  255 255 255
14.8825 1.83457 -33.6636  255 255 255
2.26982 2.95027 -21.3721  255 255 255
14.7346 1.87269 -34.2548  255 255 255
17.0087 0.513952 -29.0918  255 255 255
17.2502 0.340272 -28.8009  255 255 255
17.2502 0.340272 -28.8009  255 255 255
-1.09422 6.84466 -42.1368  255 255 255
16.7488 0.652833 -30.2692  255 255 255
-1.42815 3.95244 -23.0295  255 255 255
-0.319547 3.49024 -21.959  255 255 255
-0.271594 3.47248 -21.9298  255 255 255
15.013 1.40392 -33.5355  255 255 255
-0.210061 3.36753 -21.7934  255 255 255
-0.196757 3.37257 -21.8283  255 255 255
16.4993 0.497657 -30.5869  255 255 255
16.4164 0.498866 -30.4671  255 255 255
-1.17845 3.68161 -22.5746  255 255 255
-2.08576 4.05938 -23.6903  255 255 255
4.10169 2.20283 -21.7016  255 255 255
0.310142 3.09844 -21.4608  255 255 255
15.1599 1.19002 -33.5378  255 255 255
15.1599 1.19002 -33.5378  255 255 255
17.2347 -0.0441222 -28.6624  255 255 255
-0.648741 3.40353 -22.0006  255 255 255
0.0995699 3.13261 -21.527  255 255 255
0.0995699 3.13261 -21.527  255 255 255
14.6901 1.40746 -34.7022  255 255 255
-0.165152 3.16947 -21.6459  255 255 255
1.00137 2.78593 -21.1589  255 255 255
-1.68997 3.69439 -22.9488  255 255 255
16.3248 0.331253 -30.815  255 255 255
16.4458 0.297412 -30.7067  255 255 255
-1.32138 3.53668 -22.5312  255 255 255
1.56376 2.43892 -20.9567  255 255 255
16.8229 -0.190606 -29.5798  255 255 255
17.3988 -0.480987 -28.7664  255 255 255
17.3988 -0.480987 -28.7664  255 255 255
16.9157 -0.27068 -29.5611  255 255 255
-0.912879 3.10532 -21.8996  255 255 255
15.2385 0.671362 -33.9288  255 255 255
16.0852 0.155265 -31.6626  255 255 255
17.1213 -0.363932 -29.7694  255 255 255
-1.14254 3.14257 -22.0685  255 255 255
15.9675 0.166423 -31.8389  255 255 255
16.9414 -0.378634 -29.6688  255 255 255
-2.26824 3.59776 -23.3568  255 255 255
-2.27073 3.59598 -23.3481  255 255 255
3.12874 1.90681 -21.0802  255 255 255
-1.35723 3.17615 -22.2685  255 255 255
-1.3622 3.17676 -22.2559  255 255 255
16.0074 -0.0177898 -32.1305  255 255 255
16.9403 -0.592568 -30.1351  255 255 255
15.4646 0.167304 -33.2548  255 255 255
-1.1697 2.92571 -21.977  255 255 255
0.516653 2.31957 -20.9995  255 255 255
15.7379 -0.040388 -32.9473  255 255 255
15.7835 -0.040682 -33.0153  255 255 255
6.51803 1.0769 -23.6233  255 255 255
-1.19598 2.8038 -21.9001  255 255 255
17.0499 -0.872679 -29.7561  255 255 255
8.40832 0.675788 -24.5487  255 255 255
8.14652 0.676814 -24.4888  255 255 255
15.785 -0.237238 -32.9278  255 255 255
15.9904 -0.361737 -32.3426  255 255 255
4.33946 1.24874 -21.5601  255 255 255
6.53923 0.909454 -23.5101  255 255 255
-0.0995249 2.29495 -21.1569  255 255 255
-3.16113 3.80451 -27.0885  255 255 255
16.0414 -0.519355 -32.2784  255 255 255
0.279638 2.12334 -20.976  255 255 255
0.860416 1.9522 -20.8549  255 255 255
16.0674 -0.591237 -32.3189  255 255 255
-3.94704 4.09762 -28.8589  255 255 255
17.3645 -1.36356 -29.9473  255 255 255
-3.25282 3.60536 -26.7906  255 255 255
-0.877283 2.286 -21.4336  255 255 255
-4.46846 5.23074 -40.1836  255 255 255
-4.46846 5.23074 -40.1836  255 255 255
4.02126 0.8523 -21.543  255 255 255
-3.51995 3.35732 -26.5256  255 255 255
-1.32866 2.19359 -21.6916  255 255 255
-0.411452 1.88278 -21.1302  255 255 255
-1.36722 2.1716 -21.7028  255 255 255
-3.63957 3.2697 -26.4147  255 255 255
-4.2561 3.60905 -28.1928  255 255 255
-3.61984 3.21884 -26.3392  255 255 255
-3.85086 3.24317 -26.4151  255 255 255
-3.27483 2.78543 -24.1499  255 255 255
-0.0359475 1.58665 -20.8913  255 255 255
-1.47046 2.04095 -21.6841  255 255 255
-0.747413 1.73522 -21.1986  255 255 255
17.3986 -2.16707 -30.379  255 255 255
17.4646 -2.28424 -30.261  255 255 255
17.4646 -2.28424 -30.261  255 255 255
-5.07321 3.50123 -28.0235  255 255 255
-5.07138 3.49988 -28.0295  255 255 255
0.242192 1.31475 -20.7485  255 255 255
0.327771 1.2532 -20.6787  255 255 255
-3.99914 2.95411 -26.0468  255 255 255
7.48032 -0.437421 -22.9572  255 255 255
-2.75192 2.30003 -23.0239  255 255 255
0.454249 1.19493 -20.6759  255 255 255
-4.30423 3.14347 -27.5412  255 255 255
-2.05962 1.99479 -22.1264  255 255 255
-0.531005 1.45938 -21.0478  255 255 255
-1.60613 1.79413 -21.7149  255 255 255
-5.04 3.29378 -27.7809  255 255 255
0.0202589 1.23417 -20.7761  255 255 255
0.0202589 1.23417 -20.7761  255 255 255
-1.7013 1.74236 -21.7633  255 255 255
4.268 0.0755412 -21.6119  255 255 255
1.56022 0.644374 -20.5916  255 255 255
-0.424349 1.14204 -20.9312  255 255 255
3.3826 0.112248 -21.0235  255 255 255
-0.269628 1.04783 -20.8452  255 255 255
-0.269628 1.04783 -20.8452  255 255 255
1.01049 0.676673 -20.5896  255 255 255
-0.85934 1.18022 -20.9634  255 255 255
1.6916 0.439416 -20.631  255 255 255
-1.09646 1.22956 -21.2907  255 255 255
-3.32008 1.97757 -23.6745  255 255 255
-3.32008 1.97757 -23.6745  255 255 255
2.12405 0.208665 -20.6724  255 255 255
2.12405 0.208665 -20.6724  255 255 255
0.334681 0.691104 -20.6775  255 255 255
-3.50867 2.02962 -24.0948  255 255 255
5.20882 -0.576709 -21.6071  255 255 255
0.0254162 0.750383 -20.7066  255 255 255
7.40386 -1.16189 -22.1261  255 255 255
-0.879788 0.997403 -20.9866  255 255 255
-3.04165 1.67259 -23.1076  255 255 255
0.422249 0.513014 -20.7244  255 255 255
0.703263 0.429072 -20.6507  255 255 255
-4.13814 2.10989 -24.9189  255 255 255
-2.22045 1.32159 -21.9896  255 255 255
4.89402 -0.804855 -21.2733  255 255 255
-1.23655 0.897313 -21.3311  255 255 255
-1.20936 0.855891 -21.1877  255 255 255
-0.736 0.664178 -21.0298  255 255 255
-2.8567 1.34041 -22.7325  255 255 255
2.39524 -0.27983 -20.7979  255 255 255
-0.875031 0.630169 -21.0516  255 255 255
-3.78455 1.65991 -24.2649  255 255 255
-5.40314 2.2527 -26.4352  255 255 255
4.65594 -0.967046 -21.061  255 255 255
0.813671 0.0464035 -20.6507  255 255 255
1.28918 -0.0838035 -20.6551  255 255 255
1.30022 -0.0888873 -20.6742  255 255 255
5.13396 -1.10874 -21.4721  255 255 255
4.52536 -1.00387 -21.0151  255 255 255
6.54188 -1.55162 -21.5143  255 255 255
-3.00101 1.18433 -22.9518  255 255 255
3.07509 -0.662092 -21.0882  255 255 255
-2.33539 0.897392 -22.0923  255 255 255
5.88633 -1.44886 -21.6742  255 255 255
-3.27928 1.17175 -23.3374  255 255 255
5.84002 -1.52317 -21.5809  255 255 255
-5.85215 2.0875 -26.2608  255 255 255
-2.00769 0.687584 -21.7832  255 255 255
-5.64009 1.90235 -25.9336  255 255 255
-5.62834 1.90426 -25.9823  255 255 255
0.214698 -0.101924 -20.7761  255 255 255
2.41157 -0.728323 -20.8951  255 255 255
2.68502 -0.791433 -20.9937  255 255 255
1.96235 -0.779187 -20.8592  255 255 255
-3.87582 1.03903 -23.4486  255 255 255
-1.63845 0.279668 -21.3894  255 255 255
1.60948 -0.683076 -20.8165  255 255 255
-5.01473 1.44579 -25.3354  255 255 255
-2.58583 0.403215 -22.2228  255 255 255
-2.58583 0.403215 -22.2228  255 255 255
-2.45289 0.175735 -22.1226  255 255 255
5.6732 -2.28147 -20.5836  255 255 255
-1.2572 -0.298468 -21.3755  255 255 255
-1.72135 -0.247617 -21.718  255 255 255
-2.37989 -0.0658728 -22.0888  255 255 255
-4.18591 0.51331 -23.4474  255 255 255
-2.33986 -0.223482 -21.8386  255 255 255
1.91923 -1.54049 -20.3229  255 255 255
1.84201 -1.54983 -20.324  255 255 255
-3.21094 -0.00532861 -22.1662  255 255 255
1.71741 -1.54671 -20.2882  255 255 255
1.37561 -1.46283 -20.3562  255 255 255
-2.05027 -0.42073 -21.6171  255 255 255
-2.05027 -0.42073 -21.6171  255 255 255
-5.5905 0.677512 -24.4285  255 255 255
-2.1329 -0.527842 -21.4935  255 255 255
4.25649 -2.48232 -20.3866  255 255 255
4.98914 -2.70766 -20.6955  255 255 255
2.38093 -2.03253 -20.4985  255 255 255
2.38093 -2.03253 -20.4985  255 255 255
3.68243 -2.42085 -20.4592  255 255 255
-5.61121 0.434257 -24.0084  255 255 255
-5.27109 0.30829 -23.8552  255 255 255
5.55801 -3.02054 -20.8198  255 255 255
5.55801 -3.02054 -20.8198  255 255 255
-5.78354 0.381186 -23.9884  255 255 255
-2.27422 -0.769731 -21.2512  255 255 255
-5.31699 0.202312 -23.6808  255 255 255
-5.46253 0.202087 -23.7492  255 255 255
-2.76251 -0.68816 -21.6446  255 255 255
-1.0296 -1.2455 -20.6937  255 255 255
-1.25352 -1.18216 -20.7184  255 255 255
3.15786 -2.57069 -20.2887  255 255 255
0.00181648 -1.64632 -20.4023  255 255 255
0.00181648 -1.64632 -20.4023  255 255 255
-4.84503 -0.129484 -23.2907  255 255 255
-5.27455 -0.013772 -23.3874  255 255 255
-4.84856 -0.173243 -23.2108  255 255 255
-5.4091 -0.00356394 -23.4562  255 255 255
3.51365 -2.79198 -19.9738  255 255 255
0.335787 -1.83276 -20.3288  255 255 255
-5.11649 -0.284211 -23.0775  255 255 255
-0.74895 -1.65672 -20.7087  255 255 255
-0.463537 -1.76452 -20.6268  255 255 255
-0.463537 -1.76452 -20.6268  255 255 255
2.52073 -2.67718 -20.1205  255 255 255
-0.849349 -1.68096 -20.7517  255 255 255
2.45001 -2.89011 -19.8431  255 255 255
3.0777 -3.14042 -19.5113  255 255 255
3.0777 -3.14042 -19.5113  255 255 255
-4.69288 -0.773426 -22.4977  255 255 255
-3.3687 -1.24855 -21.8585  255 255 255
1.79702 -2.89982 -19.8562  255 255 255
5.60575 -4.12803 -21.7749  255 255 255
5.35649 -4.05552 -21.9277  255 255 255
-4.9892 -0.887283 -23.0346  255 255 255
-3.46257 -1.4139 -21.6572  255 255 255
1.2377 -2.91281 -19.7824  255 255 255
0.102272 -2.56853 -20.2279  255 255 255
-4.71726 -1.07335 -22.0551  255 255 255
-4.0148 -1.29455 -21.8158  255 255 255
0.791148 -2.79751 -19.9404  255 255 255
1.60052 -3.09129 -19.7178  255 255 255
-2.68283 -1.77131 -21.1853  255 255 255
0.914317 -2.92111 -19.7933  255 255 255
-3.24013 -1.63269 -21.3677  255 255 255
-2.23869 -1.94792 -20.9687  255 255 255
0.584213 -2.83442 -19.916  255 255 255
-4.65493 -1.22266 -21.9345  255 255 255
-0.617313 -2.48059 -20.3189  255 255 255
-4.88248 -1.17531 -21.933  255 255 255
1.18705 -3.11527 -19.7627  255 255 255
1.67351 -3.33266 -19.9727  255 255 255
-0.338593 -2.73892 -19.9779  255 255 255
-0.121418 -2.84733 -19.8248  255 255 255
-2.13619 -2.22757 -20.6429  255 255 255
-0.966614 -2.59096 -20.1882  255 255 255
0.9841 -3.2598 -19.8912  255 255 255
-1.92826 -2.37377 -20.4396  255 255 255
-2.14716 -2.30767 -20.5063  255 255 255
-0.943596 -2.72648 -20.001  255 255 255
-1.21618 -2.64986 -20.1013  255 255 255
1.97421 -3.68302 -20.2732  255 255 255
3.91704 -4.45366 -21.4779  255 255 255
3.91704 -4.45366 -21.4779  255 255 255
-2.60026 -2.36821 -20.5047  255 255 255
1.32128 -3.69841 -20.2521  255 255 255
1.31753 -3.69251 -20.2408  255 255 255
5.87654 -5.35626 -22.8525  255 255 255
-1.59356 -2.89883 -20.3949  255 255 255
5.72699 -5.3241 -22.7216  255 255 255
-1.38204 -2.98234 -20.3791  255 255 255
0.617017 -3.68255 -20.2124  255 255 255
0.617017 -3.68255 -20.2124  255 255 255
1.00496 -3.82806 -20.3131  255 255 255
-1.13348 -3.1578 -20.3999  255 255 255
1.00065 -3.93522 -20.4362  255 255 255
5.01955 -5.35811 -22.682  255 255 255
-1.09445 -3.36973 -20.5537  255 255 255
-0.991567 -3.4537 -20.5623  255 255 255
0.789248 -4.02176 -20.4788  255 255 255
-3.82647 -2.62436 -22.3544  255 255 255
-0.0406082 -4.00194 -20.4115  255 255 255
-1.50156 -3.55429 -20.9611  255 255 255
-1.03083 -3.77942 -20.9061  255 255 255
1.72816 -4.78733 -21.1253  255 255 255
1.78136 -4.92653 -21.1794  255 255 255
-0.216133 -4.26176 -20.8216  255 255 255
-0.170306 -4.31437 -20.86  255 255 255
1.77678 -5.06324 -21.2781  255 255 255
-0.99276 -4.14889 -21.2289  255 255 255
1.4837 -5.17857 -21.2539  255 255 255
1.4837 -5.17857 -21.2539  255 255 255
1.07437 -5.09139 -21.2985  255 255 255
-1.65598 -4.32546 -21.6182  255 255 255
-1.80878 -4.32509 -21.7087  255 255 255
-3.77103 -3.89755 -22.9893  255 255 255
-3.70208 -3.99998 -22.8755  255 255 255
-1.27761 -4.75051 -21.6651  255 255 255
2.72039 -6.16472 -22.0643  255 255 255
2.34807 -6.02409 -21.9505  255 255 255
-1.35193 -4.80704 -21.6647  255 255 255
1.98326 -6.00777 -21.9315  255 255 255
-1.36981 -4.87242 -21.6531  255 255 255
-3.97254 -4.14778 -23.4812  255 255 255
-2.87362 -4.80631 -22.8288  255 255 255
-4.30911 -4.43902 -24.041  255 255 255
-2.97527 -4.88685 -23.0859  255 255 255
-1.81965 -5.34632 -22.4763  255 255 255
-5.00107 -4.73543 -24.9087  255 255 255
2.61851 -7.7209 -21.9862  255 255 255
-5.47399 -5.71928 -24.5097  255 255 255
-11.5695 -4.14953 -28.2667  255 255 255
-11.4181 -4.23804 -28.1139  255 255 255
-0.333084 -7.49496 -21.6336  255 255 255
0.144196 -7.74665 -21.8407  255 255 255
-0.601844 -7.55056 -21.9248  255 255 255
-0.442375 -7.64023 -21.9197  255 255 255
-0.596506 -7.70664 -21.9719  255 255 255
-0.696247 -7.6761 -21.9135  255 255 255
-1.25496 -7.63588 -22.2429  255 255 255
-0.561534 -7.88873 -21.9648  255 255 255
-0.561534 -7.88873 -21.9648  255 255 255
-2.82182 -7.26972 -22.7507  255 255 255
-9.43101 -5.47892 -26.5192  255 255 255
-9.49427 -5.47526 -26.5807  255 255 255
4.98173 -10.1422 -20.5188  255 255 255
-8.45531 -6.3456 -25.3472  255 255 255
-6.55394 -6.90308 -24.1648  255 255 255
-6.40487 -7.03549 -24.0449  255 255 255
-6.26197 -7.06864 -23.945  255 255 255
-5.41008 -7.57349 -23.2681  255 255 255
-7.70779 -7.13178 -24.3338  255 255 255
3.25087 -10.6148 -19.9222  255 255 255
3.28002 -10.6378 -19.977  255 255 255
1.39068 -10.0629 -20.696  255 255 255
1.25947 -10.0936 -20.5514  255 255 255
0.729469 -9.98539 -20.7117  255 255 255
4.01717 -11.2633 -19.0568  255 255 255
4.95725 -11.6896 -18.5004  255 255 255
-7.5782 -7.75407 -23.5971  255 255 255
0.672946 -10.388 -20.2679  255 255 255
-8.2401 -7.62798 -23.8178  255 255 255
-8.2401 -7.62798 -23.8178  255 255 255
-5.52551 -8.48542 -22.5652  255 255 255
-7.97947 -7.75742 -23.6281  255 255 255
-5.59175 -8.49171 -22.5578  255 255 255
3.0193 -11.2852 -19.03  255 255 255
4.15161 -11.7344 -18.4399  255 255 255
2.65525 -11.3031 -18.9871  255 255 255
-8.02296 -8.05306 -23.209  255 255 255
2.90331 -11.6024 -18.586  255 255 255
3.28403 -11.7348 -18.4135  255 255 255
-4.44216 -9.30886 -21.6307  255 255 255
-10.598 -7.50914 -23.8965  255 255 255
3.85871 -12.1314 -18.0131  255 255 255
2.80968 -11.8817 -18.3222  255 255 255
-5.928 -9.13404 -21.8251  255 255 255
0.000868691 -11.0573 -19.4217  255 255 255
-0.0535175 -11.1938 -19.2409  255 255 255
-11.0424 -7.76089 -23.5636  255 255 255
-8.25302 -8.68285 -22.4274  255 255 255
-1.87384 -10.7384 -19.6739  255 255 255
2.59166 -12.4678 -17.539  255 255 255
-0.115651 -11.7209 -18.5261  255 255 255
0.218095 -12.0133 -18.1663  255 255 255
-2.47398 -11.7882 -18.4802  255 255 255
-8.05346 -10.224 -20.4765  255 255 255
-5.71398 -11.0085 -19.5009  255 255 255
-5.78995 -11.0352 -19.3645  255 255 255
-0.623918 25.4767 -41.4699  255 255 255
-0.623918 25.4767 -41.4699  255 255 255
18.9441 28.0614 -51.8483  255 255 255
15.7809 18.4402 -31.1962  255 255 255
12.6882 26.3128 -49.3638  255 255 255
18.29 26.8627 -52.3555  255 255 255
16.8331 16.9026 -30.0525  255 255 255
9.46024 25.4443 -47.8601  255 255 255
16.9489 26.183 -52.1641  255 255 255
15.7507 17.2927 -32.4361  255 255 255
20.6861 26.2263 -54.4106  255 255 255
8.23576 24.7573 -47.797  255 255 255
14.7603 13.924 -25.3259  255 255 255
20.6451 25.7042 -54.6711  255 255 255
15.9981 16.484 -31.8946  255 255 255
8.11531 24.4096 -48.1442  255 255 255
4.77399 23.9508 -46.0962  255 255 255
15.0803 17.3586 -34.0665  255 255 255
14.4446 13.784 -25.7516  255 255 255
10.7812 24.22 -49.773  255 255 255
14.3554 13.7012 -26.2361  255 255 255
8.84985 23.6336 -48.8119  255 255 255
15.1508 16.7148 -34.593  255 255 255
14.1283 23.956 -52.0094  255 255 255
1.53675 22.8089 -45.0077  255 255 255
14.6135 16.9851 -35.3285  255 255 255
16.4595 15.1672 -31.4742  255 255 255
21.1649 24.2817 -56.1206  255 255 255
15.8599 11.865 -23.4833  255 255 255
19.9489 24.1627 -55.598  255 255 255
18.6547 23.8073 -54.4966  255 255 255
3.24785 22.4624 -45.8206  255 255 255
-3.02473 21.9491 -42.5044  255 255 255
14.9907 12.4951 -25.3078  255 255 255
14.9907 12.4951 -25.3078  255 255 255
15.8769 23.5824 -53.5123  255 255 255
8.42121 22.6545 -49.2527  255 255 255
15.3543 15.7476 -34.3866  255 255 255
1.68295 21.8122 -45.7463  255 255 255
-1.90563 21.371 -43.2748  255 255 255
14.5862 12.4567 -26.6402  255 255 255
13.225 22.5012 -52.155  255 255 255
14.3817 12.6837 -27.3144  255 255 255
5.72963 21.9859 -48.2173  255 255 255
14.7122 12.3321 -26.6105  255 255 255
15.116 11.9356 -25.8469  255 255 255
15.1647 22.3152 -53.4093  255 255 255
14.194 22.1105 -53.3726  255 255 255
13.1953 21.8019 -52.5346  255 255 255
13.5901 21.8169 -52.7874  255 255 255
14.9541 15.2035 -35.8551  255 255 255
13.357 21.7935 -52.8599  255 255 255
13.1935 21.743 -52.7657  255 255 255
13.4164 21.6665 -52.7699  255 255 255
15.0921 11.2463 -25.8068  255 255 255
14.2302 12.0183 -27.9541  255 255 255
15.6938 10.62 -24.7861  255 255 255
14.314 21.229 -53.4979  255 255 255
14.9389 10.8898 -25.6063  255 255 255
14.9389 10.8898 -25.6063  255 255 255
15.4037 10.7289 -25.4354  255 255 255
17.6698 21.3116 -55.9563  255 255 255
14.9949 10.9446 -26.2683  255 255 255
9.25124 20.6584 -50.8656  255 255 255
1.24545 20.2264 -46.1839  255 255 255
14.4402 11.4471 -27.6553  255 255 255
15.5342 20.8969 -54.9246  255 255 255
15.2077 10.6654 -26.1895  255 255 255
15.3488 10.5296 -26.0189  255 255 255
15.6878 10.1786 -25.2979  255 255 255
15.5685 10.2603 -25.5334  255 255 255
15.1931 10.4278 -26.2903  255 255 255
15.0705 13.956 -36.4575  255 255 255
-1.20923 19.5534 -45.2473  255 255 255
10.9564 20.0947 -52.6104  255 255 255
3.3584 19.7449 -48.2418  255 255 255
16.7575 11.9291 -33.1666  255 255 255
1.42718 19.1986 -47.2788  255 255 255
15.3087 9.83507 -26.6572  255 255 255
14.4647 10.3395 -28.281  255 255 255
14.1843 10.597 -29.0039  255 255 255
15.1973 9.59681 -26.9639  255 255 255
6.15545 18.7698 -50.4728  255 255 255
15.2488 9.46056 -27.1479  255 255 255
1.52716 18.5883 -47.9766  255 255 255
14.7087 9.76727 -28.1723  255 255 255
14.6877 9.7597 -28.1531  255 255 255
15.2971 9.21747 -26.9464  255 255 255
15.2971 9.21747 -26.9464  255 255 255
5.73013 18.3633 -50.4493  255 255 255
15.1016 9.30237 -27.4784  255 255 255
15.2019 9.09406 -27.2878  255 255 255
15.9014 11.5864 -35.6335  255 255 255
20.2751 16.8661 -55.0225  255 255 255
15.9817 11.4587 -35.5537  255 255 255
11.4473 18.2266 -54.6828  255 255 255
-3.12719 17.8463 -45.256  255 255 255
-3.12719 17.8463 -45.256  255 255 255
14.735 9.19193 -28.2776  255 255 255
0.678588 17.7102 -47.7489  255 255 255
9.84865 17.7405 -53.5779  255 255 255
-2.54236 17.4485 -46.0637  255 255 255
15.418 11.4512 -37.1709  255 255 255
-2.28186 17.2786 -46.1353  255 255 255
-2.28186 17.2786 -46.1353  255 255 255
14.2414 9.17643 -29.9162  255 255 255
14.201 9.18384 -30.2019  255 255 255
-2.59948 16.8544 -46.2618  255 255 255
-3.50719 16.6239 -45.8847  255 255 255
-2.45038 16.2222 -45.4562  255 255 255
-0.272552 16.2159 -48.1769  255 255 255
0.198652 16.2355 -48.8427  255 255 255
14.0402 8.37059 -30.7552  255 255 255
-0.504848 16.1553 -48.4934  255 255 255
14.6439 7.91256 -29.5632  255 255 255
14.4073 10.8326 -39.9498  255 255 255
15.6906 7.07465 -27.6873  255 255 255
15.0699 7.33514 -28.891  255 255 255
15.2003 7.29306 -28.9003  255 255 255
15.2414 7.07827 -28.6508  255 255 255
15.4502 7.02128 -28.5879  255 255 255
15.0178 9.84259 -39.2832  255 255 255
15.4787 9.31467 -38.1131  255 255 255
15.1153 6.89887 -29.0323  255 255 255
14.2518 7.61085 -31.1435  255 255 255
15.0501 6.97817 -29.6028  255 255 255
15.0519 6.75956 -29.0459  255 255 255
14.7775 9.61965 -40.4568  255 255 255
14.7775 9.61965 -40.4568  255 255 255
16.2544 5.82897 -27.0321  255 255 255
0.808417 14.8353 -50.169  255 255 255
15.4245 6.36236 -28.7979  255 255 255
16.2188 8.29685 -37.0577  255 255 255
14.4022 9.65103 -41.2581  255 255 255
14.5857 9.48094 -40.9773  255 255 255
-1.95901 14.5091 -48.2919  255 255 255
6.99234 12.3827 -48.693  255 255 255
1.41311 14.066 -50.9489  255 255 255
14.6827 8.66409 -41.1835  255 255 255
6.77871 12.0727 -48.4953  255 255 255
15.3075 5.70566 -29.7412  255 255 255
15.4037 5.60141 -29.6644  255 255 255
5.81002 12.1555 -48.883  255 255 255
5.81002 12.1555 -48.883  255 255 255
-3.95592 13.8755 -47.7137  255 255 255
-4.11309 13.8961 -47.7753  255 255 255
-4.13545 13.8719 -47.6653  255 255 255
14.5537 8.44154 -41.6725  255 255 255
15.7343 5.13866 -28.712  255 255 255
14.6486 8.34618 -41.458  255 255 255
-4.51672 13.7644 -47.7552  255 255 255
3.3207 11.3322 -48.0244  255 255 255
16.1316 6.49822 -38.7026  255 255 255
14.3955 5.43181 -32.3204  255 255 255
15.1769 4.50728 -30.6323  255 255 255
15.1769 4.50728 -30.6323  255 255 255
-3.62208 12.5541 -48.9204  255 255 255
10.495 8.18718 -43.8334  255 255 255
15.3545 4.18201 -30.8138  255 255 255
14.9744 4.27817 -31.4212  255 255 255
3.81838 9.21442 -45.1649  255 255 255
3.10394 9.41699 -45.5509  255 255 255
3.65526 9.15395 -45.097  255 255 255
3.3402 9.04451 -44.8787  255 255 255
15.8296 3.27094 -30.2089  255 255 255
16.8271 2.4313 -27.9617  255 255 255
14.2551 4.09847 -33.8187  255 255 255
14.2452 4.09499 -33.81  255 255 255
-2.73093 10.3239 -46.6012  255 255 255
2.00413 8.76204 -44.6558  255 255 255
-0.257273 5.2657 -23.9877  255 255 255
1.39121 8.63174 -44.6149  255 255 255
15.7983 2.66184 -30.635  255 255 255
1.44627 8.25171 -43.9883  255 255 255
16.9769 1.74967 -28.3097  255 255 255
17.0199 1.75809 -28.3639  255 255 255
2.44395 7.82609 -43.4095  255 255 255
15.1283 2.86628 -32.3686  255 255 255
14.5856 3.09302 -33.6078  255 255 255
-1.24202 5.12163 -24.4301  255 255 255
15.6645 2.22023 -31.3895  255 255 255
14.9368 2.36257 -33.4462  255 255 255
-0.889167 7.78649 -43.3097  255 255 255
16.5867 1.2475 -29.6781  255 255 255
16.5748 1.19577 -29.7635  255 255 255
16.4976 1.20655 -29.6599  255 255 255
17.042 0.937858 -28.881  255 255 255
17.042 0.937858 -28.881  255 255 255
17.2124 0.625838 -28.353  255 255 255
15.0663 1.82212 -33.2689  255 255 255
-1.77437 4.30545 -23.6674  255 255 255
-2.03822 7.25192 -42.5048  255 255 255
-1.93193 4.23519 -23.7542  255 255 255
15.1767 1.37636 -33.2076  255 255 255
15.0511 1.42997 -33.4402  255 255 255
17.1251 0.163399 -29.2115  255 255 255
16.8087 0.287581 -29.9319  255 255 255
16.8747 0.0508342 -29.9142  255 255 255
-2.41794 4.57356 -28.0466  255 255 255
-2.41794 4.57356 -28.0466  255 255 255
16.782 -0.0314706 -29.805  255 255 255
-2.51545 4.52971 -28.0635  255 255 255
-2.42143 4.50798 -28.1438  255 255 255
2.42579 2.12479 -20.7898  255 255 255
-2.87881 6.1745 -41.1584  255 255 255
-3.36326 4.59907 -29.4892  255 255 255
16.528 -0.322467 -31.0456  255 255 255
-0.351697 2.62277 -21.3467  255 255 255
-2.98982 3.97229 -27.318  255 255 255
-3.04617 3.90315 -27.2371  255 255 255
1.28886 1.92101 -20.7343  255 255 255
-3.35213 3.92315 -27.3066  255 255 255
-4.13815 4.32998 -29.1009  255 255 255
17.119 -1.06157 -29.8182  255 255 255
-0.0597496 2.24284 -21.0882  255 255 255
16.9526 -1.01792 -30.5189  255 255 255
8.06648 0.460183 -24.3673  255 255 255
-1.20215 2.53802 -21.7782  255 255 255
3.19286 1.25797 -21.0081  255 255 255
0.703299 1.83116 -20.7925  255 255 255
2.61743 1.3028 -20.8364  255 255 255
17.3928 -1.52178 -29.6097  255 255 255
2.57036 1.24153 -20.7271  255 255 255
1.58014 1.48325 -20.6769  255 255 255
-1.17678 2.13657 -21.5174  255 255 255
-4.69468 3.66185 -28.2448  255 255 255
-0.208138 1.63723 -20.9437  255 255 255
-3.45843 3.04071 -26.0723  255 255 255
17.3308 -2.11142 -30.3508  255 255 255
-0.694281 1.71016 -21.1938  255 255 255
-0.615902 1.66673 -21.0613  255 255 255
-0.473688 1.60793 -21.0309  255 255 255
-3.60744 2.93471 -25.99  255 255 255
-4.30485 3.21068 -27.6058  255 255 255
-4.36315 3.17548 -27.6588  255 255 255
-0.75215 1.54937 -21.1655  255 255 255
-0.75215 1.54937 -21.1655  255 255 255
2.62419 0.575036 -20.7373  255 255 255
2.61688 0.437882 -20.7573  255 255 255
-5.18293 3.02459 -27.4029  255 255 255
-3.86348 2.2127 -25.0226  255 255 255
-3.23685 1.90249 -23.4375  255 255 255
-3.35766 1.92185 -23.7293  255 255 255
-3.51183 1.95954 -24.2058  255 255 255
-1.90728 1.18497 -21.8002  255 255 255
-4.28084 1.99626 -24.7667  255 255 255
-3.24911 1.47713 -23.4382  255 255 255
-3.2651 1.47663 -23.3888  255 255 255
-1.85309 0.967593 -21.7581  255 255 255
2.30514 -0.313285 -20.7652  255 255 255
-1.59332 0.816297 -21.5474  255 255 255
4.56499 -0.945403 -21.0687  255 255 255
-5.32452 2.16024 -26.2506  255 255 255
-4.87155 1.95903 -26.0239  255 255 255
-3.53251 1.30163 -23.8065  255 255 255
-1.33531 0.506187 -21.3134  255 255 255
-2.94129 1.0466 -22.8515  255 255 255
2.39551 -0.624097 -20.8618  255 255 255
1.78812 -0.50975 -20.7156  255 255 255
-1.3699 0.412117 -21.3291  255 255 255
-3.48066 1.15594 -23.6506  255 255 255
-3.57849 1.05321 -23.471  255 255 255
-2.22673 0.516239 -21.9132  255 255 255
0.462571 -0.366547 -20.8045  255 255 255
-4.496 1.20714 -24.3269  255 255 255
0.811938 -0.790095 -20.8287  255 255 255
0.135823 -0.705224 -20.8679  255 255 255
-2.01482 -0.0642086 -21.8717  255 255 255
-6.2284 1.73692 -35.5297  255 255 255
-0.167753 -0.869815 -20.9897  255 255 255
-2.39988 -0.230829 -21.8431  255 255 255
-5.74577 0.854128 -24.5659  255 255 255
2.40007 -1.71779 -20.3325  255 255 255
4.60574 -2.37686 -20.4732  255 255 255
1.28713 -1.50535 -20.2941  255 255 255
-1.81981 -0.58548 -21.4356  255 255 255
5.60079 -2.82901 -20.7184  255 255 255
-3.14756 -0.200839 -21.9336  255 255 255
-1.96778 -0.613506 -21.3461  255 255 255
-1.04081 -0.9897 -20.8784  255 255 255
0.138855 -1.3855 -20.4811  255 255 255
-5.83756 0.470563 -24.1364  255 255 255
2.33406 -2.09217 -20.5084  255 255 255
-0.755319 -1.19395 -20.673  255 255 255
5.55693 -3.11204 -20.9175  255 255 255
2.4428 -2.19369 -20.5589  255 255 255
5.11131 -3.02609 -20.9722  255 255 255
-2.29294 -0.825303 -21.2774  255 255 255
-0.190373 -1.56328 -20.4773  255 255 255
-4.89602 -0.113928 -23.3574  255 255 255
-3.05043 -0.729765 -21.9366  255 255 255
-7.4359 0.666978 -34.2953  255 255 255
-0.989564 -1.54061 -20.7574  255 255 255
5.14781 -3.53823 -21.4515  255 255 255
3.03692 -2.93995 -19.6437  255 255 255
2.86862 -3.01954 -19.6782  255 255 255
2.936 -3.04813 -19.6474  255 255 255
4.72581 -3.66283 -21.2738  255 255 255
-4.93772 -0.823297 -22.6799  255 255 255
-4.25241 -1.1848 -21.9131  255 255 255
-3.47305 -1.57866 -21.4579  255 255 255
-0.647959 -2.47012 -20.4116  255 255 255
-1.65636 -2.26843 -20.6719  255 255 255
1.16024 -3.16265 -19.8069  255 255 255
-3.47568 -1.73789 -21.2284  255 255 255
1.87929 -3.61868 -20.1887  255 255 255
-1.85659 -2.48114 -20.2844  255 255 255
1.76034 -3.74084 -20.2852  255 255 255
4.58119 -4.70995 -21.8879  255 255 255
-4.51322 -1.82474 -22.4616  255 255 255
1.58026 -3.77067 -20.3153  255 255 255
4.76165 -4.8629 -22.2273  255 255 255
-2.65459 -2.46437 -20.3049  255 255 255
0.941844 -3.68179 -20.2149  255 255 255
1.74729 -3.99593 -20.5076  255 255 255
2.70193 -4.39491 -20.8281  255 255 255
-1.819 -3.17527 -20.7722  255 255 255
-3.3574 -2.7427 -21.8252  255 255 255
-1.69035 -3.26684 -20.7801  255 255 255
-1.9047 -3.22428 -20.861  255 255 255
-1.9047 -3.22428 -20.861  255 255 255
-1.1213 -3.73242 -20.8819  255 255 255
-1.1213 -3.73242 -20.8819  255 255 255
1.01593 -4.458 -20.8701  255 255 255
-2.15843 -3.4595 -21.2286  255 255 255
-5.2335 -2.81332 -24.6503  255 255 255
-2.87565 -3.59285 -21.902  255 255 255
-4.66997 -3.08126 -23.4059  255 255 255
1.5951 -5.12434 -21.3439  255 255 255
1.47954 -5.13585 -21.2251  255 255 255
-4.68666 -3.19267 -23.4449  255 255 255
-4.59074 -3.27858 -23.618  255 255 255
1.7461 -5.28421 -21.3457  255 255 255
-5.09588 -3.20754 -24.738  255 255 255
-1.36735 -4.38405 -21.4907  255 255 255
-1.58193 -4.34559 -21.6246  255 255 255
-3.80306 -3.73884 -22.9461  255 255 255
-3.79331 -3.73914 -22.9744  255 255 255
1.30634 -5.39896 -21.4477  255 255 255
-10.9385 -2.01749 -30.9147  255 255 255
2.74485 -6.03711 -21.6745  255 255 255
-1.66227 -4.59488 -21.8069  255 255 255
-2.99733 -4.2371 -22.5864  255 255 255
0.871556 -5.60116 -21.6185  255 255 255
-0.965704 -5.00573 -21.6363  255 255 255
-10.3906 -2.55564 -30.3174  255 255 255
-3.65849 -4.34592 -23.1804  255 255 255
-3.67515 -4.33402 -23.1119  255 255 255
-1.29661 -5.07019 -21.8253  255 255 255
0.812718 -5.91436 -21.8783  255 255 255
3.00735 -7.03155 -22.5198  255 255 255
-2.12882 -5.29967 -22.6037  255 255 255
-4.24168 -4.82409 -24.3332  255 255 255
-0.38936 -6.29228 -22.3415  255 255 255
-0.16724 -6.56199 -22.4218  255 255 255
0.543653 -6.83868 -21.4434  255 255 255
-2.23273 -6.14074 -23.1813  255 255 255
-5.19506 -5.43863 -23.9518  255 255 255
-5.56938 -5.43495 -24.2792  255 255 255
-0.327959 -7.10996 -21.3174  255 255 255
-10.1409 -4.56241 -27.6395  255 255 255
-3.15712 -6.50184 -22.2712  255 255 255
-11.3615 -4.33228 -27.993  255 255 255
-0.493092 -7.56552 -21.8857  255 255 255
-0.379709 -7.64501 -21.8295  255 255 255
-0.801154 -7.63993 -22.2563  255 255 255
-3.16695 -6.97801 -22.6592  255 255 255
-0.27848 -7.95181 -21.8507  255 255 255
-0.337945 -8.01533 -21.96  255 255 255
-2.97712 -7.27239 -22.7499  255 255 255
-3.19718 -7.21982 -22.8785  255 255 255
-3.04329 -7.26897 -22.8349  255 255 255
-3.04329 -7.26897 -22.8349  255 255 255
5.00917 -10.216 -20.4501  255 255 255
-6.32155 -7.03703 -24.0449  255 255 255
3.83233 -10.3598 -20.2803  255 255 255
3.5275 -10.3121 -20.3099  255 255 255
-1.47534 -8.90675 -21.5227  255 255 255
-9.07063 -6.74075 -24.8678  255 255 255
-7.87716 -7.41718 -23.9812  255 255 255
3.3964 -11.1692 -19.2644  255 255 255
-9.06689 -7.24974 -24.2577  255 255 255
-8.14733 -7.63054 -23.8106  255 255 255
4.66725 -11.8292 -18.3603  255 255 255
-8.38326 -7.70503 -23.7001  255 255 255
0.815787 -10.6863 -19.8156  255 255 255
3.77977 -11.6742 -18.4886  255 255 255
3.20355 -11.6833 -18.456  255 255 255
1.73252 -11.2972 -19.1397  255 255 255
3.35124 -11.8451 -18.3701  255 255 255
-0.905682 -10.4888 -20.1218  255 255 255
0.996859 -11.296 -19.0844  255 255 255
1.2165 -11.4169 -18.9853  255 255 255
0.642667 -11.3166 -18.9748  255 255 255
0.671966 -11.346 -19.037  255 255 255
2.80895 -12.0579 -18.0722  255 255 255
2.35116 -11.9766 -18.1793  255 255 255
-0.348062 -11.1334 -19.2795  255 255 255
2.22934 -11.9951 -18.1564  255 255 255
-0.285371 -11.205 -19.2285  255 255 255
-5.75064 -9.54039 -21.325  255 255 255
-2.6284 -10.5324 -20.0028  255 255 255
2.41499 -12.178 -17.9198  255 255 255
0.598688 -11.5962 -18.6888  255 255 255
-7.9959 -8.86307 -22.1835  255 255 255
-6.22459 -9.52578 -21.244  255 255 255
-6.00488 -9.65083 -21.1049  255 255 255
-5.8697 -9.72473 -21.0577  255 255 255
1.28309 -12.0804 -18.0915  255 255 255
-0.672319 -11.5397 -18.7936  255 255 255
-3.44762 -10.6612 -19.9375  255 255 255
2.4773 -12.6361 -17.3414  255 255 255
-3.29559 -11.4685 -18.9329  255 255 255
-2.55042 -11.7072 -18.5853  255 255 255
-4.82394 -11.0681 -19.3981  255 255 255
-7.45396 -10.8916 -19.7092  255 255 255
0.979818 26.0807 -42.1237  255 255 255
19.3132 28.8936 -52.1939  255 255 255
18.7977 28.3742 -51.4934  255 255 255
-1.3848 25.4917 -41.2652  255 255 255
15.0915 19.2057 -32.4642  255 255 255
5.72341 26.0512 -45.2416  255 255 255
16.1167 18.0742 -30.9147  255 255 255
20.4095 27.728 -53.1236  255 255 255
29.011 28.8986 -58.1357  255 255 255
29.011 28.8986 -58.1357  255 255 255
13.2836 26.633 -49.5035  255 255 255
16.2383 17.6532 -30.7594  255 255 255
28.4984 28.4619 -57.9797  255 255 255
10.6344 25.0929 -48.6711  255 255 255
-1.56386 23.5141 -42.2232  255 255 255
0.79962 23.7186 -43.6657  255 255 255
-1.24938 23.3084 -42.5651  255 255 255
24.7084 26.0138 -57.037  255 255 255
14.6269 13.8336 -25.4801  255 255 255
14.0205 24.8095 -51.2744  255 255 255
14.0205 24.8095 -51.2744  255 255 255
17.4939 25.1465 -53.269  255 255 255
23.7349 25.7835 -56.8312  255 255 255
17.8312 25.0721 -53.4648  255 255 255
17.5145 24.987 -53.4306  255 255 255
15.4494 12.8951 -24.1265  255 255 255
15.9251 12.1975 -22.7526  255 255 255
16.1149 11.9535 -22.69  255 255 255
16.6605 15.2428 -31.0118  255 255 255
10.6839 23.8568 -50.0186  255 255 255
15.3148 16.3302 -33.3408  255 255 255
15.1134 12.6643 -24.891  255 255 255
-2.15441 22.2056 -42.8174  255 255 255
1.4078 22.5041 -45.1348  255 255 255
16.7135 23.8066 -53.8127  255 255 255
2.2287 22.3203 -45.6081  255 255 255
14.3901 12.9725 -26.537  255 255 255
18.109 23.5788 -54.8175  255 255 255
1.9501 21.8096 -44.5353  255 255 255
16.1717 14.7669 -32.3924  255 255 255
16.2992 14.6257 -32.0843  255 255 255
16.2992 14.6257 -32.0843  255 255 255
10.2711 22.7533 -50.7166  255 255 255
7.75793 22.2662 -49.0276  255 255 255
7.75793 22.2662 -49.0276  255 255 255
16.2236 22.8411 -53.805  255 255 255
17.9471 22.965 -54.7697  255 255 255
14.4281 22.8211 -53.1567  255 255 255
15.3427 11.8239 -25.3209  255 255 255
17.2879 22.8678 -54.7  255 255 255
17.3448 22.8978 -54.7973  255 255 255
14.5325 22.6618 -53.1946  255 255 255
11.1399 22.3131 -51.325  255 255 255
2.70233 21.5197 -46.4804  255 255 255
2.7184 21.5333 -46.5234  255 255 255
-2.85394 21.0454 -43.1169  255 255 255
14.7167 22.0564 -53.2512  255 255 255
15.2683 11.2915 -25.5505  255 255 255
4.77287 21.1864 -47.8204  255 255 255
9.04064 21.5438 -50.5058  255 255 255
0.188024 20.908 -45.3606  255 255 255
15.5567 21.8436 -54.2382  255 255 255
15.2242 11.2709 -25.8079  255 255 255
3.46406 20.7802 -47.2453  255 255 255
6.58661 20.4665 -49.5561  255 255 255
5.83165 20.5059 -49.4414  255 255 255
7.51361 20.4477 -50.0647  255 255 255
15.3644 10.2209 -26.0453  255 255 255
8.48753 19.899 -50.6713  255 255 255
8.6189 19.8051 -50.7125  255 255 255
15.0421 13.5735 -36.5114  255 255 255
0.802076 19.4915 -46.8898  255 255 255
10.2313 19.8991 -52.6747  255 255 255
