ply
format ascii 1.0
element vertex 1235
property float x
property float y
property float z
property uchar red
property uchar green
property uchar blue
end_header
-7.19328 7.34262 -43.0841  255 255 255
-7.18066 7.33422 -43.0795  255 255 255
2.11072 1.14604 -20.6796  255 255 255
2.53291 0.755856 -20.7463  255 255 255
0.615395 -0.223721 -20.6818  255 255 255
10.1989 18.3761 -53.8364  255 255 255
-5.71775 2.11266 -26.2679  255 255 255
-2.08585 2.50365 -22.413  255 255 255
2.26392 -0.799517 -20.9008  255 255 255
16.8354 20.2741 -56.4965  255 255 255
-0.887289 -0.679437 -21.2681  255 255 255
-2.26917 3.00385 -22.9116  255 255 255
2.00757 0.542358 -20.544  255 255 255
2.38444 -0.133745 -20.8181  255 255 255
-2.06906 -0.0925562 -21.9058  255 255 255
16.6406 0.177217 -30.0531  255 255 255
-2.75826 17.4451 -45.9159  255 255 255
-4.18577 2.48131 -25.4702  255 255 255
-0.326384 -1.09399 -20.8006  255 255 255
1.14638 2.95456 -21.2806  255 255 255
12.9639 -7.93517 -23.2921  255 255 255
-3.52521 17.4201 -45.4359  255 255 255
0.995645 3.00261 -21.3182  255 255 255
3.20624 1.00378 -21.0257  255 255 255
4.83587 -0.651816 -21.4991  255 255 255
-4.65821 13.1728 -48.0318  255 255 255
-4.74953 10.302 -46.6889  255 255 255
0.170754 0.515205 -20.7402  255 255 255
3.18544 1.12063 -21.0219  255 255 255
2.08218 0.408838 -20.6626  255 255 255
14.7993 4.62759 -31.7675  255 255 255
15.5255 3.1253 -30.9081  255 255 255
16.5585 0.590121 -30.0536  255 255 255
-1.02761 0.240345 -21.1863  255 255 255
-0.410611 -0.919855 -21.0307  255 255 255
-3.08166 -1.46883 -21.5474  255 255 255
0.549942 -1.22053 -20.6473  255 255 255
15.0049 3.82481 -31.7933  255 255 255
3.17204 -0.280222 -21.0145  255 255 255
-4.49186 -1.13099 -22.013  255 255 255
14.1421 6.61519 -31.8678  255 255 255
2.78457 0.0897127 -20.7784  255 255 255
-0.87837 2.87172 -21.8024  255 255 255
14.6801 6.23443 -30.9509  255 255 255
2.01431 -2.92088 -19.8293  255 255 255
-16.2592 11.2591 -43.3107  255 255 255
-19.7266 12.1242 -38.6649  255 255 255
-19.66 12.1141 -39.181  255 255 255
-16.9051 11.2282 -42.9129  255 255 255
-5.93314 2.10083 -26.2544  255 255 255
8.14564 12.275 -49.1111  255 255 255
7.79073 11.8946 -48.5378  255 255 255
9.21531 6.52473 -41.3997  255 255 255
3.49034 2.56944 -21.6139  255 255 255
3.49205 2.56877 -21.6224  255 255 255
4.18709 2.23831 -21.7898  255 255 255
3.58388 1.665 -21.2713  255 255 255
3.14763 1.30494 -21.0213  255 255 255
4.73599 0.858017 -21.7881  255 255 255
2.71687 0.495546 -20.788  255 255 255
2.54497 -0.201444 -20.8047  255 255 255
7.75767 0.500225 -24.2381  255 255 255
-2.90641 -1.80343 -21.1959  255 255 255
4.59971 -0.964009 -21.1244  255 255 255
5.77726 -1.58783 -21.5338  255 255 255
-5.69549 -9.48725 -21.3946  255 255 255
-5.95095 -9.75077 -21.0421  255 255 255
15.0142 9.26011 -39.9238  255 255 255
11.8875 -4.26776 -28.0763  255 255 255
1.17984 2.96095 -21.2982  255 255 255
6.73397 -0.774358 -22.6498  255 255 255
7.34741 -0.974598 -22.3014  255 255 255
2.72357 2.40976 -21.2114  255 255 255
2.7674 2.17524 -21.1235  255 255 255
2.52864 1.83851 -21.025  255 255 255
2.30175 3.15549 -21.536  255 255 255
4.89952 2.27039 -22.2846  255 255 255
0.805849 -0.160383 -20.6936  255 255 255
0.304001 2.97318 -21.3573  255 255 255
3.04165 1.02322 -20.9321  255 255 255
2.67768 1.76903 -20.9454  255 255 255
4.0493 1.68456 -21.5539  255 255 255
1.40304 1.10351 -20.6233  255 255 255
0.856826 0.276987 -20.637  255 255 255
-0.541567 -0.790678 -21.1408  255 255 255
-5.29237 8.56664 -44.5357  255 255 255
-0.41382 0.466008 -20.9102  255 255 255
-16.5995 4.93054 -40.0689  255 255 255
-2.44232 -2.0362 -20.8463  255 255 255
-1.93426 -2.20281 -20.7231  255 255 255
-5.21889 0.169552 -23.607  255 255 255
-10.9774 2.32274 -36.5524  255 255 255
-17.7175 -9.97786 -20.2196  255 255 255
-9.37805 1.32498 -35.2607  255 255 255
-15.9093 4.94686 -40.1811  255 255 255
-11.0225 2.46921 -36.8432  255 255 255
-17.7406 -8.58282 -22.8639  255 255 255
4.10796 2.36845 -21.7984  255 255 255
3.01554 19.3041 -48.366  255 255 255
2.50541 0.559848 -20.7588  255 255 255
-18.3621 9.64522 -41.8184  255 255 255
3.10306 19.354 -48.2899  255 255 255
5.15947 -2.04846 -20.9632  255 255 255
0.153542 -2.8032 -19.9301  255 255 255
-8.6177 16.0846 -43.1446  255 255 255
-4.52146 7.68772 -43.2645  255 255 255
0.803505 -0.157332 -20.6834  255 255 255
-3.37677 -9.62675 -21.1377  255 255 255
2.05302 20.1539 -46.9168  255 255 255
-3.10798 -0.802029 -21.9711  255 255 255
-0.167893 2.26986 -21.1401  255 255 255
15.5663 -0.0107418 -32.9436  255 255 255
-7.2371 -8.54943 -22.5677  255 255 255
-3.57161 -10.2948 -20.1729  255 255 255
10.8062 18.3588 -54.2109  255 255 255
10.2082 18.0934 -54.0733  255 255 255
-3.3531 17.5385 -45.4762  255 255 255
-4.4258 17.2635 -45.1047  255 255 255
14.8799 9.87796 -39.7524  255 255 255
2.43683 1.393 -20.7682  255 255 255
-0.19686 0.240306 -20.819  255 255 255
-3.88409 -10.0966 -20.5579  255 255 255
3.27958 18.9725 -48.8148  255 255 255
-1.23072 17.8924 -46.5986  255 255 255
-1.22687 17.9137 -46.6774  255 255 255
8.92574 17.1574 -54.0086  255 255 255
14.4103 12.9813 -49.9506  255 255 255
7.28825 -0.960944 -22.3903  255 255 255
-1.70181 -0.668609 -21.3083  255 255 255
2.96439 9.5645 -45.7782  255 255 255
1.54998 8.0175 -43.6581  255 255 255
-2.59267 1.28381 -22.4853  255 255 255
-3.03509 0.0382328 -22.2172  255 255 255
-18.2587 -7.03304 -24.6777  255 255 255
4.45826 17.7471 -50.5356  255 255 255
-3.24261 17.857 -45.392  255 255 255
-9.3798 14.6149 -43.7517  255 255 255
14.7634 -5.25568 -26.729  255 255 255
14.5362 -5.09722 -26.9626  255 255 255
-8.66859 16.1428 -43.0215  255 255 255
-11.501 3.05142 -37.4584  255 255 255
2.9819 1.35458 -20.958  255 255 255
-13.4135 0.924612 -34.8569  255 255 255
8.69753 15.4338 -52.97  255 255 255
14.6481 10.1872 -40.3598  255 255 255
0.429109 3.4248 -21.6538  255 255 255
-1.6824 3.68001 -22.9419  255 255 255
0.773281 2.89364 -21.2425  255 255 255
0.773281 2.89364 -21.2425  255 255 255
1.43104 2.70968 -21.1164  255 255 255
4.42203 1.37875 -21.6575  255 255 255
15.4431 0.227575 -33.1268  255 255 255
2.34075 1.62073 -20.8476  255 255 255
15.5794 -0.0112279 -32.9602  255 255 255
0.712581 1.62962 -20.7556  255 255 255
4.84032 0.801447 -21.8561  255 255 255
14.7392 -0.30593 -32.6479  255 255 255
5.80962 0.0573634 -22.3635  255 255 255
1.6862 0.679346 -20.6114  255 255 255
7.30359 -0.876172 -22.5331  255 255 255
6.01175 -1.0015 -22.2304  255 255 255
-4.06088 1.44441 -24.0523  255 255 255
2.29878 -0.64689 -20.8662  255 255 255
1.69857 -0.532686 -20.7672  255 255 255
-3.65472 0.862944 -23.3096  255 255 255
-3.65615 0.863943 -23.3003  255 255 255
0.650695 -0.739693 -20.8376  255 255 255
-2.49439 -0.148338 -21.9625  255 255 255
-0.926444 -0.606085 -21.2647  255 255 255
-4.54688 -0.877787 -22.3651  255 255 255
-3.02076 -1.35654 -21.7758  255 255 255
-3.2309 -1.55173 -21.478  255 255 255
-2.4921 -2.29867 -20.5131  255 255 255
0.0588722 -3.09723 -19.5776  255 255 255
15.4643 3.976 -30.4169  255 255 255
15.9476 -0.29548 -31.7528  255 255 255
16.8104 -0.79028 -29.7918  255 255 255
15.4124 -0.122039 -33.1895  255 255 255
2.58275 0.877929 -20.7495  255 255 255
6.03436 -1.25501 -21.8849  255 255 255
-2.48387 -0.655328 -21.4077  255 255 255
4.74894 -3.67021 -21.3182  255 255 255
-3.52199 -1.54608 -21.5156  255 255 255
14.2755 6.96193 -31.6836  255 255 255
15.3579 2.96004 -31.461  255 255 255
15.3836 1.09862 -32.2075  255 255 255
15.8648 -0.436622 -32.4894  255 255 255
0.705994 0.252168 -20.6749  255 255 255
-4.31727 -1.33441 -21.8721  255 255 255
3.14656 -9.80556 -21.0413  255 255 255
15.0592 2.69088 -32.4323  255 255 255
15.1396 2.09602 -32.6939  255 255 255
-3.05963 0.270159 -22.467  255 255 255
-2.63158 0.149943 -22.3517  255 255 255
-1.4754 -0.907164 -21.0376  255 255 255
-3.59621 -0.915706 -22.3195  255 255 255
13.037 -7.262 -24.0312  255 255 255
10.769 -7.2261 -24.1576  255 255 255
15.7189 8.99171 -38.1183  255 255 255
-0.675592 -1.07692 -20.8215  255 255 255
12.3894 -6.12638 -25.6953  255 255 255
11.0781 -7.75629 -23.4527  255 255 255
0.240702 -0.921215 -20.9355  255 255 255
-1.55392 -2.50862 -20.209  255 255 255
-3.66269 17.3041 -45.5216  255 255 255
9.42207 18.9271 -52.9131  255 255 255
14.6455 18.9689 -56.0742  255 255 255
2.73739 18.8134 -48.6437  255 255 255
14.6606 22.081 -53.5915  255 255 255
-9.44754 -2.59319 -30.501  255 255 255
14.8632 2.3995 -33.1894  255 255 255
1.66946 1.49357 -20.7111  255 255 255
-2.28965 -1.43949 -21.4325  255 255 255
15.0485 1.43811 -33.3359  255 255 255
15.375 0.298374 -33.5439  255 255 255
-15.2314 8.5756 -44.7753  255 255 255
15.3728 0.0844954 -33.2458  255 255 255
-13.76 1.16369 -35.0361  255 255 255
-5.72902 -9.10911 -21.8529  255 255 255
-6.37128 -9.52753 -21.2883  255 255 255
16.0937 1.099 -30.6126  255 255 255
15.8916 0.45541 -31.7177  255 255 255
17.1182 -2.2934 -30.5553  255 255 255
-1.84888 -0.374741 -21.7132  255 255 255
15.3213 -6.01909 -25.8824  255 255 255
-6.013 -9.48795 -21.3887  255 255 255
15.6272 9.40646 -38.0336  255 255 255
15.7383 2.6397 -30.7093  255 255 255
13.9606 -6.20385 -25.2974  255 255 255
-1.11216 0.454421 -21.2769  255 255 255
14.8547 10.55 -39.8686  255 255 255
2.61536 1.23325 -20.8146  255 255 255
-0.491902 2.84887 -21.5572  255 255 255
-0.769858 1.47449 -21.1425  255 255 255
10.9599 -6.41732 -25.2727  255 255 255
-2.23779 -1.76814 -21.2381  255 255 255
15.8873 8.16553 -38.1454  255 255 255
15.1179 0.650321 -33.4956  255 255 255
17.1399 -2.1169 -30.3628  255 255 255
-1.47194 -0.0725206 -21.4755  255 255 255
0.338541 -0.773323 -20.8758  255 255 255
0.739316 -0.0413977 -20.6688  255 255 255
15.1638 0.829848 -33.2295  255 255 255
8.6169 20.2384 -51.1802  255 255 255
0.470688 19.1168 -46.6363  255 255 255
11.7733 22.8104 -51.6198  255 255 255
10.7804 19.3968 -53.3562  255 255 255
14.4051 10.3192 -40.7597  255 255 255
15.8978 1.47499 -31.0473  255 255 255
4.51848 2.12778 -21.9576  255 255 255
2.54754 1.70985 -20.8989  255 255 255
-0.250983 1.03611 -20.8829  255 255 255
2.07958 -0.119984 -20.7108  255 255 255
4.71263 -0.812834 -21.2949  255 255 255
-5.07668 -0.244694 -23.1279  255 255 255
10.563 19.2342 -53.3912  255 255 255
15.3246 9.41138 -38.8762  255 255 255
-4.23568 13.7425 -47.9086  255 255 255
2.84445 1.78303 -21.0205  255 255 255
15.6524 -0.139735 -32.8832  255 255 255
-0.808957 1.88839 -21.2862  255 255 255
2.57776 1.03844 -20.7859  255 255 255
3.96221 -1.43462 -20.9265  255 255 255
-0.481457 -2.86126 -19.9059  255 255 255
15.2048 19.475 -55.9751  255 255 255
2.68027 5.10762 -24.4519  255 255 255
3.19392 4.85963 -23.8938  255 255 255
4.76426 1.44929 -21.942  255 255 255
-0.199284 1.61556 -20.9649  255 255 255
-1.25847 1.57873 -21.4166  255 255 255
0.707335 0.249865 -20.6437  255 255 255
15.0968 22.2446 -53.8048  255 255 255
5.28439 18.9793 -48.2989  255 255 255
3.47469 4.06014 -22.6572  255 255 255
14.9188 2.71173 -32.9579  255 255 255
15.1366 1.08938 -33.2755  255 255 255
14.4821 10.9896 -39.9194  255 255 255
-3.20754 2.03225 -23.5233  255 255 255
1.18148 0.747749 -20.6332  255 255 255
-4.55681 15.793 -46.106  255 255 255
15.4631 9.12497 -38.7845  255 255 255
14.3282 4.36139 -33.4058  255 255 255
0.720687 -1.10473 -20.8233  255 255 255
-6.71704 -9.4181 -21.4395  255 255 255
0.819925 2.32709 -20.9194  255 255 255
15.7056 2.1713 -31.0603  255 255 255
0.425099 2.31873 -21.0221  255 255 255
-0.151987 -0.881842 -21.0305  255 255 255
-0.0453231 -0.0745265 -20.831  255 255 255
-0.0234576 -0.980212 -20.9571  255 255 255
-0.353291 -1.77121 -20.5725  255 255 255
15.0777 4.81465 -30.9904  255 255 255
10.6502 18.4354 -54.062  255 255 255
-8.53517 16.1854 -43.1122  255 255 255
14.5783 5.25121 -31.8682  255 255 255
-0.908959 1.94653 -21.3425  255 255 255
0.605368 1.30815 -20.7  255 255 255
17.1899 -2.38732 -30.4726  255 255 255
17.468 20.527 -57.3178  255 255 255
-1.68204 0.43973 -21.5668  255 255 255
-1.68712 -0.477111 -21.5576  255 255 255
-5.70663 5.89168 -41.2  255 255 255
16.9243 -0.851278 -30.0729  255 255 255
-0.796574 -0.810126 -21.1422  255 255 255
0.524552 -10.1368 -20.3764  255 255 255
-0.710771 -0.712639 -21.1947  255 255 255
0.328477 -9.98949 -20.7208  255 255 255
16.7341 19.3181 -57.2957  255 255 255
16.6338 18.8798 -57.1504  255 255 255
-1.07907 3.44926 -22.3583  255 255 255
3.89727 -0.976781 -21.094  255 255 255
2.67091 -2.81549 -19.9286  255 255 255
-3.71894 0.911639 -23.4387  255 255 255
1.75115 0.833604 -20.6428  255 255 255
0.240993 1.14511 -20.7548  255 255 255
-0.0201947 1.23156 -20.8342  255 255 255
10.9798 -7.69433 -23.6412  255 255 255
-0.734331 1.19549 -21.1093  255 255 255
-1.05884 1.02952 -21.2272  255 255 255
-0.411794 0.941094 -20.9271  255 255 255
-1.37045 1.13826 -21.4156  255 255 255
0.209217 1.66937 -20.8458  255 255 255
0.212106 1.6684 -20.8711  255 255 255
0.822402 0.843162 -20.6381  255 255 255
-4.22105 -0.662398 -22.6868  255 255 255
1.24017 0.214285 -20.6172  255 255 255
16.8821 -1.55225 -30.7436  255 255 255
15.2786 3.99137 -30.8619  255 255 255
-1.41069 1.15968 -21.4317  255 255 255
-0.336788 -0.292593 -20.9228  255 255 255
4.21546 1.39337 -21.5221  255 255 255
0.425185 2.54794 -21.1153  255 255 255
1.42242 2.57494 -21.0384  255 255 255
14.3889 3.80239 -33.3769  255 255 255
-2.0903 -1.15787 -21.1628  255 255 255
15.7621 1.20496 -31.6676  255 255 255
2.51051 2.1015 -21.0135  255 255 255
-0.481264 -0.229119 -20.9917  255 255 255
13.4004 -4.95966 -27.1066  255 255 255
-4.09374 -9.48634 -21.3481  255 255 255
1.98482 -0.325506 -20.7584  255 255 255
-2.41997 18.1149 -45.6637  255 255 255
16.9885 -0.815952 -29.8981  255 255 255
-0.320647 0.014179 -20.902  255 255 255
-1.89247 0.419902 -21.7344  255 255 255
-0.993613 0.313983 -21.1578  255 255 255
15.0229 5.12017 -30.8384  255 255 255
0.781703 18.9254 -47.2565  255 255 255
4.2549 -4.77028 -21.8129  255 255 255
-4.09059 2.29792 -25.1587  255 255 255
3.14761 3.14717 -21.7512  255 255 255
0.0702556 2.31183 -21.0975  255 255 255
-2.71316 -0.331486 -21.7468  255 255 255
7.75664 8.37966 -44.0692  255 255 255
1.593 -3.26997 -19.8935  255 255 255
14.8624 3.01261 -32.8496  255 255 255
-9.15527 2.16155 -36.4193  255 255 255
2.84423 1.78422 -21.0238  255 255 255
-1.55092 -2.56985 -20.1981  255 255 255
1.25077 7.40641 -42.9006  255 255 255
-4.45099 -4.11956 -24.1736  255 255 255
-9.85378 2.36292 -36.5241  255 255 255
2.55214 1.7085 -20.9234  255 255 255
14.3832 -5.95025 -25.7781  255 255 255
16.8046 -2.17767 -30.5097  255 255 255
-6.37008 -9.53086 -21.2849  255 255 255
-0.0141466 2.19162 -21.0666  255 255 255
15.3074 9.57054 -38.8104  255 255 255
-5.28019 -9.65365 -21.1332  255 255 255
15.9152 0.457296 -31.7495  255 255 255
-5.96067 -9.54886 -21.2707  255 255 255
14.7462 3.40607 -32.8188  255 255 255
-5.78802 -9.40709 -21.4211  255 255 255
-5.93181 -9.36945 -21.5328  255 255 255
-3.9495 -3.35222 -23.0098  255 255 255
-1.88254 -0.660578 -21.3172  255 255 255
-0.582021 -2.81023 -19.8961  255 255 255
-2.75261 -1.95644 -21.0386  255 255 255
16.7777 -1.60366 -31.1168  255 255 255
-0.997476 -4.47419 -21.3896  255 255 255
6.80267 -0.635389 -22.7607  255 255 255
-1.61341 1.85578 -21.7487  255 255 255
4.27797 -0.832788 -21.2562  255 255 255
16.3795 -0.959267 -31.8123  255 255 255
0.164383 -2.6896 -20.1105  255 255 255
15.3277 10.8079 -37.785  255 255 255
17.1465 -2.03687 -30.4181  255 255 255
16.957 -1.69971 -30.6401  255 255 255
-0.0165245 2.34969 -21.0939  255 255 255
0.558253 2.92699 -21.297  255 255 255
1.39983 2.45784 -20.9595  255 255 255
-2.84549 1.52318 -22.8276  255 255 255
-4.13071 1.50786 -24.1468  255 255 255
1.29716 -1.28008 -20.5881  255 255 255
-0.573035 17.5724 -47.3812  255 255 255
15.5488 9.71816 -38.0537  255 255 255
15.1005 10.5574 -38.6603  255 255 255
14.9996 3.14366 -32.4233  255 255 255
16.5083 0.0456954 -30.4982  255 255 255
-5.70954 -9.19149 -21.717  255 255 255
-16.8656 5.17722 -40.2663  255 255 255
3.28541 -6.85754 -22.6354  255 255 255
1.56285 2.82358 -21.1517  255 255 255
1.13135 2.83868 -21.1771  255 255 255
0.0827057 1.08597 -20.791  255 255 255
1.79218 1.74757 -20.7592  255 255 255
1.0999 1.46297 -20.677  255 255 255
1.24322 2.6155 -21.0566  255 255 255
-14.8064 12.1982 -42.0153  255 255 255
-17.4702 11.1171 -41.3993  255 255 255
-11.3839 13.181 -43.5679  255 255 255
-16.7596 11.3231 -42.7679  255 255 255
-5.77331 12.119 -48.1815  255 255 255
0.201137 2.56653 -21.1897  255 255 255
-25.4511 1.04372 -35.2118  255 255 255
-17.3991 1.07041 -35.2282  255 255 255
-13.8405 1.79444 -36.0306  255 255 255
-15.8773 3.99901 -38.9692  255 255 255
-13.9044 1.86839 -36.2198  255 255 255
-9.43798 7.13721 -42.7454  255 255 255
-7.9973 7.60825 -43.6182  255 255 255
-18.9903 1.19916 -35.3837  255 255 255
-18.764 1.22554 -35.3468  255 255 255
-17.0054 6.09521 -41.6698  255 255 255
-19.329 1.88785 -36.0478  255 255 255
-17.2461 5.79393 -41.1749  255 255 255
-19.176 1.60573 -35.9576  255 255 255
14.9369 14.1439 -36.8744  255 255 255
-4.60743 8.53378 -44.6639  255 255 255
-3.80628 8.37757 -44.2233  255 255 255
-14.1444 1.06142 -34.8616  255 255 255
-5.88571 10.2127 -46.5886  255 255 255
-15.5593 4.58816 -39.7611  255 255 255
-14.765 12.1894 -42.0834  255 255 255
-12.1597 7.81963 -43.8459  255 255 255
-25.5936 2.17922 -36.3793  255 255 255
-26.2663 -0.0920666 -33.4731  255 255 255
-25.7791 1.2059 -35.2726  255 255 255
-8.83936 6.98222 -42.3534  255 255 255
2.11695 1.71141 -20.8157  255 255 255
8.27413 21.5119 -49.8904  255 255 255
-15.7509 12.4762 -40.621  255 255 255
-13.7857 11.9318 -42.6188  255 255 255
11.4743 -5.87344 -26.0014  255 255 255
8.00182 19.6502 -52.2161  255 255 255
-17.1449 5.54482 -40.7033  255 255 255
-17.4498 1.22679 -35.3579  255 255 255
-15.7333 4.33149 -39.2962  255 255 255
7.14094 19.3968 -50.5531  255 255 255
5.83945 18.9743 -49.7876  255 255 255
-7.11563 -9.89908 -20.8949  255 255 255
1.34446 7.87336 -43.5277  255 255 255
-8.30084 17.5904 -42.4551  255 255 255
-0.982377 3.99304 -22.7197  255 255 255
-1.78002 4.52665 -24.0529  255 255 255
-9.26281 -9.6322 -21.0775  255 255 255
10.1346 13.5166 -50.3491  255 255 255
8.46703 13.146 -50.2029  255 255 255
9.80558 6.79077 -41.9645  255 255 255
2.97332 4.88832 -24.2477  255 255 255
3.4857 4.28961 -22.8865  255 255 255
-2.79526 3.48921 -24.0457  255 255 255
4.54775 -0.653368 -21.4943  255 255 255
2.29861 -2.77011 -19.9436  255 255 255
3.36574 -4.31538 -20.9874  255 255 255
11.9691 -5.81179 -26.0203  255 255 255
11.5307 -6.22054 -25.2901  255 255 255
1.65192 -7.6627 -21.8286  255 255 255
4.04236 4.33861 -23.378  255 255 255
11.7857 -5.8753 -25.9332  255 255 255
11.0159 -6.77573 -24.703  255 255 255
-5.99837 -9.38915 -21.4201  255 255 255
12.9387 -7.90819 -23.2447  255 255 255
7.38445 -9.02948 -21.8824  255 255 255
7.38445 -9.02948 -21.8824  255 255 255
-2.69284 10.3598 -46.6225  255 255 255
8.89579 9.51812 -45.2918  255 255 255
-1.26057 4.30115 -23.2099  255 255 255
-11.9368 0.569651 -34.6705  255 255 255
0.295164 -1.24192 -20.6944  255 255 255
5.45367 -1.70642 -21.3555  255 255 255
14.3799 11.31 -40.4649  255 255 255
3.64807 4.19936 -22.8041  255 255 255
-3.4714 -9.54466 -21.3151  255 255 255
15.4627 15.9848 -53.7392  255 255 255
15.9525 14.8519 -52.3902  255 255 255
4.24123 -0.200655 -21.6989  255 255 255
0.40986 -5.94428 -21.891  255 255 255
7.89557 0.48639 -24.199  255 255 255
-5.61792 6.16862 -41.3136  255 255 255
-4.69645 -9.66144 -21.0401  255 255 255
3.07954 -1.40159 -20.5399  255 255 255
12.285 -7.79023 -22.8215  255 255 255
-10.4437 12.1677 -44.8929  255 255 255
-1.73934 4.44181 -23.8877  255 255 255
0.10012 -2.97129 -19.6647  255 255 255
2.63564 -5.98895 -21.9454  255 255 255
2.38656 5.50609 -24.5699  255 255 255
3.01507 -7.68353 -21.824  255 255 255
2.64013 -3.28453 -19.8735  255 255 255
3.40585 -4.05324 -20.8209  255 255 255
2.00438 5.21373 -24.8905  255 255 255
4.63365 -4.65339 -21.8374  255 255 255
7.54514 -0.870942 -22.5233  255 255 255
4.15548 -4.862 -21.6833  255 255 255
6.89824 -0.160269 -23.3112  255 255 255
-2.52968 -6.33636 -23.3129  255 255 255
-3.22141 -4.09313 -22.5589  255 255 255
3.08379 5.01501 -24.06  255 255 255
3.88347 -0.338278 -21.2547  255 255 255
4.54302 -5.15097 -22.1705  255 255 255
4.45386 -0.297075 -21.9042  255 255 255
7.47789 -4.45747 -24.7045  255 255 255
-0.616927 -6.83359 -21.5186  255 255 255
6.70287 -1.52935 -21.664  255 255 255
-17.2348 3.81652 -38.7834  255 255 255
-17.8155 5.94526 -41.5193  255 255 255
1.07445 18.1308 -47.8941  255 255 255
2.30196 20.2236 -47.0463  255 255 255
8.83812 20.5063 -51.1484  255 255 255
-16.413 7.84715 -43.818  255 255 255
3.05822 -2.49798 -20.3813  255 255 255
2.38417 -0.236949 -20.7737  255 255 255
4.23446 -1.84584 -21.0849  255 255 255
5.70615 -1.35412 -21.784  255 255 255
14.6934 0.790451 -34.222  255 255 255
6.17054 -1.28263 -21.9366  255 255 255
-0.431292 -2.19703 -20.696  255 255 255
3.45228 4.36322 -23.0922  255 255 255
-1.44419 -1.99923 -20.9816  255 255 255
0.171088 -2.32795 -20.5011  255 255 255
-7.02671 -8.79329 -22.2327  255 255 255
-2.29309 -2.56997 -20.3957  255 255 255
7.28024 11.3112 -47.5661  255 255 255
0.51708 -0.349953 -20.7835  255 255 255
-24.6157 1.15099 -35.225  255 255 255
-25.318 2.42399 -36.745  255 255 255
-24.3567 0.790767 -34.717  255 255 255
-4.01455 8.49829 -44.3736  255 255 255
-1.55812 1.56607 -21.6047  255 255 255
-16.821 5.86654 -40.9182  255 255 255
16.2453 -0.772627 -31.6394  255 255 255
14.2086 -5.09053 -26.7657  255 255 255
14.4236 4.09145 -33.3507  255 255 255
-3.73545 -9.56004 -21.1129  255 255 255
5.86723 -5.52671 -22.9299  255 255 255
0.994351 -5.61222 -21.7266  255 255 255
-6.79751 -9.35578 -21.5206  255 255 255
2.01056 -2.74931 -19.9862  255 255 255
-3.59417 -10.1235 -20.4522  255 255 255
14.2347 -7.52552 -23.6037  255 255 255
14.8918 -7.0916 -23.0876  255 255 255
14.0044 -7.00391 -24.594  255 255 255
14.5735 -4.98074 -26.9523  255 255 255
0.628078 -10.2287 -20.419  255 255 255
15.9586 -7.15717 -23.9293  255 255 255
-6.8329 -1.67855 -28.1895  255 255 255
-8.51157 -5.16508 -27.1565  255 255 255
-3.43062 -10.1239 -20.5427  255 255 255
14.7397 -5.7202 -26.2542  255 255 255
-3.10995 -10.1969 -20.3913  255 255 255
5.41735 -5.15002 -22.8661  255 255 255
-16.5549 -8.80209 -21.9859  255 255 255
-7.3973 -9.62518 -21.1512  255 255 255
6.96536 -0.756809 -22.6041  255 255 255
15.1417 13.579 -36.9107  255 255 255
-0.645449 5.2526 -24.5138  255 255 255
-6.61808 5.29792 -40.3538  255 255 255
1.50535 2.69364 -21.0832  255 255 255
3.10654 2.36991 -21.3832  255 255 255
-5.26141 -0.0239817 -23.4348  255 255 255
-4.16084 -1.36354 -21.7827  255 255 255
1.40788 -3.28509 -19.9098  255 255 255
-2.42335 -4.07946 -21.7139  255 255 255
5.1624 -3.03593 -21.019  255 255 255
-4.5203 -3.22963 -23.5983  255 255 255
4.65252 -5.08754 -22.2529  255 255 255
-2.79673 3.47781 -24.053  255 255 255
-2.93348 3.19247 -23.9495  255 255 255
-3.10832 2.5084 -23.6625  255 255 255
-1.6655 -0.848938 -21.1116  255 255 255
5.10677 -3.92069 -21.6791  255 255 255
-3.43087 2.32633 -24.1793  255 255 255
-12.1515 -3.43194 -29.5071  255 255 255
3.92064 -4.86734 -21.7175  255 255 255
-10.1184 1.50603 -35.4528  255 255 255
14.8459 2.91097 -32.7858  255 255 255
-1.03664 -0.608893 -21.307  255 255 255
3.90064 -0.978663 -21.1188  255 255 255
-3.21103 1.56871 -23.3718  255 255 255
1.69457 -3.17994 -19.8506  255 255 255
0.103013 -2.97951 -19.7018  255 255 255
3.86352 -4.48667 -21.445  255 255 255
4.65252 -5.08754 -22.2529  255 255 255
-0.870301 -1.24742 -20.6232  255 255 255
0.712659 0.551436 -20.6685  255 255 255
-11.9426 -3.54491 -29.4617  255 255 255
-8.39681 -8.76494 -22.4003  255 255 255
-2.68733 -1.57774 -21.4534  255 255 255
-5.7972 0.505152 -24.1719  255 255 255
15.197 18.3554 -56.8958  255 255 255
4.85351 16.133 -51.8161  255 255 255
7.86223 12.555 -49.4262  255 255 255
-12.047 10.4696 -43.9629  255 255 255
-11.9737 10.2283 -44.1978  255 255 255
-12.0844 10.1359 -44.3795  255 255 255
-12.2742 10.0593 -44.3243  255 255 255
14.3928 9.56592 -40.7388  255 255 255
-12.7098 9.85586 -43.938  255 255 255
-14.1394 9.7079 -44.5494  255 255 255
14.6394 8.38264 -40.9224  255 255 255
1.75259 8.50672 -44.2379  255 255 255
14.4505 8.29906 -40.8785  255 255 255
14.7991 8.23995 -40.677  255 255 255
14.8992 7.98211 -40.4099  255 255 255
10.4439 8.17945 -43.6642  255 255 255
6.65869 8.16609 -43.8187  255 255 255
15.1626 7.83696 -40.05  255 255 255
14.834 7.63633 -40.8157  255 255 255
14.8485 7.54592 -40.6334  255 255 255
-11.5413 6.95051 -42.7085  255 255 255
-8.96217 6.60328 -42.2106  255 255 255
-8.59368 6.58053 -41.9918  255 255 255
-7.39035 6.27346 -41.8163  255 255 255
-5.26627 6.169 -41.3959  255 255 255
-7.38803 6.15294 -41.4736  255 255 255
2.96776 4.89937 -24.1938  255 255 255
15.7882 5.10419 -39.5711  255 255 255
14.4105 3.88762 -33.2525  255 255 255
-4.90581 3.22212 -27.7228  255 255 255
-0.804621 3.21857 -21.9465  255 255 255
-10.5879 2.55903 -36.8645  255 255 255
1.94248 2.6318 -21.0993  255 255 255
-10.5987 2.13402 -36.4044  255 255 255
3.79488 2.41251 -21.7071  255 255 255
14.8458 0.598092 -33.9991  255 255 255
15.2485 -0.194435 -32.9715  255 255 255
-12.6748 -0.230169 -33.3667  255 255 255
-12.8856 -0.372519 -33.2183  255 255 255
4.12339 -0.726291 -21.3543  255 255 255
5.37254 -1.55589 -21.5476  255 255 255
13.9289 -5.02369 -27.0667  255 255 255
14.8335 -5.13879 -26.8926  255 255 255
14.6698 -5.55239 -26.3852  255 255 255
14.2351 -6.0861 -25.5868  255 255 255
-2.53123 -6.67671 -22.2492  255 255 255
10.3096 -7.89196 -23.2441  255 255 255
10.6054 -8.04172 -23.2167  255 255 255
9.34937 -8.5268 -22.4966  255 255 255
-5.37019 -9.73953 -20.9924  255 255 255
-3.52181 -9.77597 -20.9607  255 255 255
-4.35856 -9.88086 -20.8311  255 255 255
-3.18203 -10.124 -20.4697  255 255 255
-3.11068 -10.1973 -20.3963  255 255 255
15.7288 18.4834 -57.0161  255 255 255
15.318 18.3442 -56.6643  255 255 255
7.63352 15.8506 -53.5131  255 255 255
8.64365 15.1739 -52.5903  255 255 255
7.41934 12.9879 -49.9651  255 255 255
7.41304 13.0001 -49.9959  255 255 255
9.52936 11.6495 -48.298  255 255 255
-11.8384 10.7582 -44.1274  255 255 255
14.502 9.62814 -40.7961  255 255 255
1.5211 8.53594 -44.415  255 255 255
15.3301 8.08714 -38.5145  255 255 255
-16.3662 8.0159 -44.1472  255 255 255
15.3628 7.575 -39.7622  255 255 255
-6.5373 7.66828 -43.491  255 255 255
15.1707 7.06565 -40.7346  255 255 255
-8.29695 7.00625 -42.5641  255 255 255
15.0736 6.82637 -40.6739  255 255 255
14.6466 6.50678 -41.4358  255 255 255
-8.57988 6.38138 -41.7848  255 255 255
-5.60895 6.05999 -41.2503  255 255 255
15.3176 1.86329 -31.9778  255 255 255
-8.81885 1.66213 -35.7716  255 255 255
16.0135 0.590093 -31.1395  255 255 255
15.507 0.449037 -32.7176  255 255 255
12.8011 -2.39383 -30.27  255 255 255
-3.13418 -1.16011 -22.095  255 255 255
-11.0486 -3.12979 -29.6333  255 255 255
12.3313 -3.76468 -28.4343  255 255 255
3.00391 -2.09686 -20.6432  255 255 255
13.1882 -4.71918 -27.2537  255 255 255
-12.6772 -4.98428 -27.2099  255 255 255
11.2088 -7.49973 -23.9127  255 255 255
11.2088 -7.49973 -23.9127  255 255 255
13.7656 -7.65944 -23.4868  255 255 255
11.2859 -7.64249 -23.5864  255 255 255
-3.15816 -9.24654 -21.6552  255 255 255
-4.22377 -9.53967 -21.3003  255 255 255
-3.86324 -9.97548 -20.7164  255 255 255
8.21658 16.9639 -53.3191  255 255 255
7.50627 14.5211 -52.02  255 255 255
15.3821 11.3657 -37.596  255 255 255
-16.4876 7.94969 -44.0234  255 255 255
-4.90347 7.7718 -43.4796  255 255 255
15.0971 6.72318 -40.4362  255 255 255
-7.93694 5.83555 -41.1654  255 255 255
6.77043 1.64192 -24.4889  255 255 255
8.2978 1.51442 -25.6116  255 255 255
15.2064 0.360915 -33.8557  255 255 255
-10.9739 -3.37418 -29.1478  255 255 255
-11.242 -3.41606 -29.217  255 255 255
-0.856343 -2.29992 -20.5813  255 255 255
14.6237 -4.75298 -27.036  255 255 255
13.9273 -4.9223 -27.0407  255 255 255
14.9593 -6.04778 -25.6412  255 255 255
14.2544 -6.28952 -25.3501  255 255 255
9.52106 -7.68843 -23.54  255 255 255
-4.99429 -9.54006 -21.2759  255 255 255
-4.34426 -9.81181 -20.9012  255 255 255
-4.43683 -9.96518 -20.6655  255 255 255
0.668159 -10.1774 -20.5233  255 255 255
8.23847 16.2085 -53.829  255 255 255
8.17071 15.9165 -53.5046  255 255 255
15.369 13.7561 -50.814  255 255 255
14.4038 12.7017 -49.6394  255 255 255
-11.0775 11.6846 -45.1666  255 255 255
-11.5031 10.5415 -44.4532  255 255 255
-5.66659 6.51028 -41.8004  255 255 255
-6.89296 6.48667 -41.9843  255 255 255
-5.48363 5.95126 -41.3404  255 255 255
-6.64318 5.81745 -40.9292  255 255 255
-5.97076 5.78321 -41.0459  255 255 255
1.03189 -2.73602 -20.064  255 255 255
14.1027 -4.84737 -27.2577  255 255 255
16.5558 -6.52996 -24.8026  255 255 255
13.0372 -6.70886 -24.9993  255 255 255
2.11055 -6.05848 -22.0012  255 255 255
11.3301 -7.59378 -23.7577  255 255 255
11.1897 -7.80626 -23.3258  255 255 255
17.1736 14.7669 -52.8087  255 255 255
15.6717 14.2789 -51.4319  255 255 255
-7.5064 5.88342 -41.2181  255 255 255
-12.7012 10.0593 -44.344  255 255 255
-12.7012 10.0593 -44.344  255 255 255
0.330286 -10.1378 -20.6815  255 255 255
-12.6031 10.8658 -44.1889  255 255 255
-12.3151 10.4557 -43.7359  255 255 255
-16.1203 9.22023 -44.3548  255 255 255
-11.8234 10.4214 -44.1599  255 255 255
4.91089 -4.2232 -21.8537  255 255 255
15.0124 5.75754 -30.9146  255 255 255
4.94646 0.0573578 -21.943  255 255 255
-5.93005 -8.48661 -22.6272  255 255 255
-6.85458 -10.3221 -20.3518  255 255 255
1.73798 18.4477 -48.1985  255 255 255
6.13025 -5.9432 -22.5957  255 255 255
15.0351 22.6112 -53.8775  255 255 255
-6.3393 11.7596 -48.0479  255 255 255
6.38555 20.3308 -49.5952  255 255 255
13.4599 22.3377 -53.2249  255 255 255
6.28098 0.714494 -23.3023  255 255 255
3.82483 1.43863 -21.3742  255 255 255
2.07251 3.09291 -21.3755  255 255 255
-16.1049 -7.11423 -24.2356  255 255 255
-0.456532 -0.0984968 -20.976  255 255 255
16.8876 20.5342 -56.2405  255 255 255
-9.79372 11.7877 -46.1136  255 255 255
15.555 22.6325 -53.9549  255 255 255
17.2964 20.5604 -56.7764  255 255 255
14.1351 21.1545 -54.2428  255 255 255
-1.18142 -0.014931 -21.3059  255 255 255
3.143 2.22699 -21.2724  255 255 255
10.7648 18.6561 -53.8576  255 255 255
5.67845 18.3886 -50.8574  255 255 255
-12.3761 15.8503 -41.0871  255 255 255
3.78055 1.35993 -21.3207  255 255 255
15.4141 19.6578 -55.9999  255 255 255
8.06501 13.1536 -50.1808  255 255 255
15.6389 20.3987 -55.6857  255 255 255
11.7638 21.4197 -52.4155  255 255 255
1.46694 1.71486 -20.7268  255 255 255
7.90938 19.0387 -52.0222  255 255 255
-0.754285 2.23415 -21.2974  255 255 255
2.90555 -2.49624 -20.3427  255 255 255
9.53808 16.8346 -54.5256  255 255 255
9.40101 18.1657 -53.3999  255 255 255
5.8131 20.225 -49.6816  255 255 255
4.2791 19.2946 -49.3678  255 255 255
7.3259 20.7466 -50.0423  255 255 255
9.28211 18.0106 -53.5334  255 255 255
15.2677 22.3522 -53.9841  255 255 255
15.4029 22.475 -53.8565  255 255 255
10.0069 20.3668 -51.7261  255 255 255
0.517186 -0.350484 -20.7905  255 255 255
-0.9353 -1.40472 -20.6904  255 255 255
12.439 -3.61366 -28.8498  255 255 255
-13.1434 -4.57277 -27.7991  255 255 255
14.4121 12.9799 -49.9614  255 255 255
7.24129 19.2031 -50.7361  255 255 255
9.82956 13.5497 -50.8094  255 255 255
14.6466 9.82837 -40.6876  255 255 255
-4.99505 16.4538 -45.3439  255 255 255
-4.22858 2.61967 -25.6072  255 255 255
-2.92945 1.03124 -22.811  255 255 255
1.03228 17.9046 -47.9862  255 255 255
-2.41576 -2.11295 -20.8826  255 255 255
-1.50937 -2.74054 -20.2428  255 255 255
-1.53342 3.13868 -22.3635  255 255 255
-26.3649 0.200689 -33.8377  255 255 255
-26.0672 -0.279688 -33.2193  255 255 255
-26.4803 0.110763 -33.7739  255 255 255
-25.6338 -0.899151 -32.484  255 255 255
-11.3213 6.0509 -41.5424  255 255 255
-9.9726 6.57461 -42.0787  255 255 255
-25.0782 2.17416 -36.2467  255 255 255
-15.2613 3.20549 -37.9398  255 255 255
-26.1866 0.0264201 -33.6341  255 255 255
-14.4251 1.99755 -36.339  255 255 255
-14.4251 1.99755 -36.339  255 255 255
-13.3689 2.01932 -36.2564  255 255 255
-16.7606 10.1105 -43.9605  255 255 255
-14.1248 0.539666 -34.25  255 255 255
12.8082 -3.03315 -29.5522  255 255 255
-1.65854 2.95407 -22.3236  255 255 255
-26.7228 0.370939 -34.1029  255 255 255
-27.7243 16.0057 -53.112  255 255 255
9.32456 6.762 -41.785  255 255 255
10.6281 7.72859 -43.0205  255 255 255
9.54877 12.7549 -49.6374  255 255 255
15.6531 20.9932 -55.2053  255 255 255
-9.5675 -2.39115 -30.5079  255 255 255
-3.42763 7.89644 -43.8389  255 255 255
-12.51 -1.17452 -32.2365  255 255 255
14.7862 22.9672 -53.1561  255 255 255
-1.78999 3.83569 -23.1966  255 255 255
3.12978 -7.3786 -21.5217  255 255 255
-7.00396 -9.41246 -21.5419  255 255 255
15.5141 20.5405 -55.5299  255 255 255
-17.8775 0.86058 -35.0987  255 255 255
14.8709 21.5158 -54.3091  255 255 255
-23.6742 -3.22194 -29.3801  255 255 255
-16.8477 10.364 -43.5256  255 255 255
-14.2078 0.601341 -34.7303  255 255 255
-11.5273 3.05101 -37.6081  255 255 255
8.1388 20.1094 -51.0503  255 255 255
11.6971 19.5461 -53.7107  255 255 255
7.57746 20.3173 -50.7852  255 255 255
12.3241 20.4138 -54.8206  255 255 255
-5.75543 8.60485 -44.5208  255 255 255
-6.01722 10.3006 -46.7444  255 255 255
9.00187 10.0714 -46.2929  255 255 255
-7.14875 -7.92606 -23.3856  255 255 255
-4.5656 9.10655 -45.6462  255 255 255
-2.14209 11.0936 -47.5781  255 255 255
-8.83403 6.8612 -42.5624  255 255 255
-4.57209 8.90394 -44.9042  255 255 255
4.13207 -1.02257 -21.0308  255 255 255
-2.90917 10.39 -46.7031  255 255 255
-6.22607 -8.86821 -22.1971  255 255 255
-8.62746 5.95942 -41.4054  255 255 255
-5.37794 5.3024 -40.3398  255 255 255
-7.58568 8.33145 -44.2321  255 255 255
3.64374 2.57168 -21.69  255 255 255
-17.2005 6.29921 -41.9418  255 255 255
16.0205 0.688801 -31.1165  255 255 255
10.1058 19.0746 -53.2332  255 255 255
6.1559 0.212339 -22.6244  255 255 255
14.247 7.32293 -31.4784  255 255 255
14.1786 6.97256 -32.0189  255 255 255
-4.37122 -9.29456 -21.5155  255 255 255
4.60892 -2.75256 -20.4888  255 255 255
6.55141 1.71696 -24.6098  255 255 255
-0.74688 -6.85248 -21.3609  255 255 255
9.47589 6.96175 -42.0133  255 255 255
6.08076 -1.15683 -22.0467  255 255 255
1.97736 5.3773 -24.7388  255 255 255
7.14977 0.398081 -23.9335  255 255 255
2.35844 9.06495 -44.7885  255 255 255
2.56122 1.88239 -20.9695  255 255 255
-5.71574 -9.01644 -21.8965  255 255 255
-2.34729 4.31022 -24.4985  255 255 255
-2.47368 8.36197 -44.0493  255 255 255
3.43278 4.21872 -23.1275  255 255 255
16.1076 0.415634 -30.8278  255 255 255
15.671 -0.0241504 -32.5596  255 255 255
3.51143 3.56199 -22.2676  255 255 255
-2.83007 6.43489 -41.841  255 255 255
17.3552 -2.56645 -29.5667  255 255 255
0.597 -6.10324 -21.9698  255 255 255
3.88143 -5.0949 -21.9331  255 255 255
-1.49875 -4.37546 -21.5641  255 255 255
-5.53452 0.287405 -23.8698  255 255 255
8.14341 13.933 -51.2538  255 255 255
9.51386 10.864 -47.2619  255 255 255
7.58984 12.0115 -48.6969  255 255 255
-4.69645 -9.66144 -21.0401  255 255 255
13.5851 23.4336 -52.4493  255 255 255
9.1462 20.1182 -51.4068  255 255 255
8.81914 20.0229 -51.2914  255 255 255
11.8075 22.7343 -51.5387  255 255 255
1.70431 8.80982 -44.6219  255 255 255
-14.6946 3.43176 -38.161  255 255 255
-4.74878 13.122 -48.1296  255 255 255
9.16053 13.1767 -49.9093  255 255 255
14.3123 7.17562 -31.7911  255 255 255
-2.17863 0.185559 -21.9963  255 255 255
14.8645 -5.04191 -26.3642  255 255 255
-2.33544 6.53368 -41.3472  255 255 255
-4.51817 -8.95576 -21.9417  255 255 255
3.66058 4.85152 -23.8898  255 255 255
2.70941 -7.16108 -21.5219  255 255 255
0.704622 -3.4344 -20.078  255 255 255
3.16333 19.0662 -48.8193  255 255 255
-10.39 2.15079 -36.4177  255 255 255
-10.1201 6.32591 -41.772  255 255 255
-15.8127 4.49011 -39.6235  255 255 255
-15.5593 4.58816 -39.7611  255 255 255
-24.201 0.93397 -34.6802  255 255 255
14.9472 23.86 -52.7694  255 255 255
-3.87448 8.1462 -43.7914  255 255 255
-6.85744 8.05972 -43.9737  255 255 255
6.876 -0.619045 -22.7884  255 255 255
15.461 -6.53075 -24.9135  255 255 255
16.7553 -6.39404 -24.8358  255 255 255
-4.30507 -9.37155 -21.4191  255 255 255
14.4729 -6.00795 -25.7291  255 255 255
7.35202 -0.974958 -22.3251  255 255 255
5.3288 2.48471 -22.8564  255 255 255
14.3794 -7.4005 -23.816  255 255 255
5.56412 -1.10377 -21.8736  255 255 255
-9.24703 2.5467 -36.8416  255 255 255
-11.2372 7.71599 -43.5292  255 255 255
-7.37283 5.68095 -40.9108  255 255 255
13.5256 -6.01725 -25.8883  255 255 255
-6.03028 16.7312 -44.2553  255 255 255
16.953 22.7487 -54.7729  255 255 255
13.3431 21.8623 -53.1038  255 255 255
7.78228 19.1686 -51.6832  255 255 255
7.83354 19.6314 -50.9269  255 255 255
5.99472 18.8896 -50.4604  255 255 255
-0.615976 1.54707 -21.0979  255 255 255
7.54252 8.13015 -43.7891  255 255 255
13.128 21.7847 -52.9557  255 255 255
6.30396 19.8971 -50.0598  255 255 255
15.0152 22.7215 -53.6178  255 255 255
-0.84066 4.55697 -23.2706  255 255 255
-15.3494 3.45923 -38.6168  255 255 255
-6.10344 6.03154 -41.3432  255 255 255
8.6268 9.13894 -45.043  255 255 255
-0.575277 3.73296 -22.2425  255 255 255
-6.35005 -8.92075 -22.1122  255 255 255
14.242 9.09342 -41.4943  255 255 255
8.67874 9.28755 -45.2313  255 255 255
-5.53169 8.07768 -43.8773  255 255 255
5.42469 0.704304 -22.4058  255 255 255
-7.3764 -8.03904 -23.1797  255 255 255
-5.01524 8.22195 -44.0439  255 255 255
-17.5676 4.88917 -40.2134  255 255 255
1.41262 -9.93288 -20.6898  255 255 255
1.97125 9.21828 -45.0721  255 255 255
17.0548 -1.87985 -29.9033  255 255 255
14.3149 4.37068 -33.3584  255 255 255
-3.14607 -10.1241 -20.4537  255 255 255
19.0724 19.9751 -57.5011  255 255 255
5.99801 -0.61655 -22.1771  255 255 255
0.862253 -2.05546 -20.401  255 255 255
4.09023 -4.84218 -22.0197  255 255 255
-0.149942 4.75924 -24.1343  255 255 255
10.5006 9.96751 -46.0639  255 255 255
6.18098 19.1105 -50.1721  255 255 255
-18.0444 -6.91443 -24.3928  255 255 255
7.85122 -3.92441 -24.5092  255 255 255
12.3385 22.6642 -52.3172  255 255 255
-4.8833 9.20839 -45.6288  255 255 255
18.3774 19.752 -57.5908  255 255 255
10.8495 -6.66675 -24.828  255 255 255
15.1073 23.4952 -53.2723  255 255 255
0.172293 20.7362 -45.5695  255 255 255
14.0779 23.1031 -52.8958  255 255 255
18.5956 23.3833 -55.4555  255 255 255
14.7333 23.2457 -52.9668  255 255 255
18.5533 23.2005 -55.5677  255 255 255
13.5217 22.3662 -52.9006  255 255 255
5.63284 22.0867 -48.1273  255 255 255
6.9775 20.3368 -50.3815  255 255 255
19.4535 19.9057 -58.5071  255 255 255
9.21263 19.5692 -52.3566  255 255 255
15.6266 19.6043 -56.1521  255 255 255
17.3006 19.5171 -57.3784  255 255 255
13.1124 15.7825 -53.5484  255 255 255
-1.49652 2.44594 -21.875  255 255 255
-3.07012 -10.0562 -20.6547  255 255 255
-3.23427 -9.99317 -20.5708  255 255 255
3.45702 -0.723935 -21.1133  255 255 255
8.02249 10.7664 -46.9215  255 255 255
-23.9107 0.520589 -34.2094  255 255 255
-17.9568 0.578134 -34.542  255 255 255
-1.05271 -1.05823 -20.8623  255 255 255
2.36849 8.59527 -44.2453  255 255 255
5.50562 -2.19098 -20.7967  255 255 255
-2.75197 -1.97556 -21.0906  255 255 255
-2.29727 -6.22016 -23.2165  255 255 255
7.49543 0.934263 -24.3614  255 255 255
2.29743 -6.56653 -22.5815  255 255 255
2.54012 -6.90492 -22.4245  255 255 255
11.4049 -5.72777 -26.0848  255 255 255
10.3545 -7.47073 -23.9327  255 255 255
13.0743 -7.15658 -23.9997  255 255 255
1.34829 8.42225 -44.1967  255 255 255
8.1946 20.2644 -51.0784  255 255 255
12.5723 21.5419 -52.9328  255 255 255
3.57848 -1.44842 -20.7153  255 255 255
14.3952 12.7177 -49.6157  255 255 255
1.02632 5.19849 -24.7063  255 255 255
-18.1958 -9.55915 -20.8535  255 255 255
-16.1424 -10.1722 -20.1423  255 255 255
-5.64624 9.82725 -46.1683  255 255 255
-7.38399 7.40432 -43.1705  255 255 255
11.4567 -5.45208 -26.3571  255 255 255
-17.4393 0.861335 -34.9003  255 255 255
-3.26344 -4.68656 -23.1466  255 255 255
-4.99 -9.53367 -21.2442  255 255 255
-3.11944 -1.37501 -21.7969  255 255 255
-0.280116 1.19396 -20.9232  255 255 255
-2.19079 -5.42977 -22.7643  255 255 255
16.3983 -6.88579 -24.3659  255 255 255
14.8061 1.03736 -34.3276  255 255 255
6.96742 9.55981 -45.3525  255 255 255
0.295164 -1.24192 -20.6944  255 255 255
7.14971 -5.38505 -23.3615  255 255 255
-4.33397 8.58535 -44.4902  255 255 255
-11.0719 11.4701 -45.2456  255 255 255
0.591049 -2.73874 -20.05  255 255 255
1.95975 7.67581 -43.1612  255 255 255
15.7135 19.4459 -56.475  255 255 255
14.8845 21.3343 -54.4523  255 255 255
13.775 -3.53966 -28.7995  255 255 255
15.5255 22.6039 -54.2977  255 255 255
6.00579 18.5325 -50.9313  255 255 255
15.7181 19.4475 -56.4952  255 255 255
16.9933 15.1803 -52.8736  255 255 255
8.83782 9.14352 -45.0727  255 255 255
4.474 17.3801 -50.8312  255 255 255
17.534 21.2841 -56.1286  255 255 255
7.24861 11.6838 -48.4264  255 255 255
12.5377 -2.96186 -29.6207  255 255 255
9.38443 12.8016 -49.6375  255 255 255
4.56212 -2.887 -20.5906  255 255 255
-6.08824 4.57615 -39.4411  255 255 255
6.96536 -0.756809 -22.6041  255 255 255
4.50328 -2.4704 -20.4185  255 255 255
-2.9175 6.26474 -41.3918  255 255 255
15.7856 0.220028 -32.072  255 255 255
-13.5705 0.877351 -34.9109  255 255 255
4.6963 3.78026 -23.406  255 255 255
0.769252 1.11296 -20.6709  255 255 255
-20.6645 -7.95517 -23.3039  255 255 255
-7.06563 5.94505 -41.0432  255 255 255
10.7606 8.27771 -43.8853  255 255 255
10.7825 20.3648 -52.5516  255 255 255
10.4516 7.89651 -43.0545  255 255 255
9.22322 20.1588 -52.0353  255 255 255
7.48133 19.5209 -50.8084  255 255 255
10.5313 20.2551 -52.6441  255 255 255
6.52526 -1.22003 -21.9087  255 255 255
2.28701 -2.53374 -20.2921  255 255 255
-8.11363 -8.09554 -23.1869  255 255 255
-5.85706 7.16354 -42.7417  255 255 255
5.85395 -1.09398 -22.0664  255 255 255
-5.79315 7.94471 -43.8114  255 255 255
-4.16819 8.61289 -44.2945  255 255 255
13.58 -5.25903 -26.8189  255 255 255
14.7322 12.6788 -49.2566  255 255 255
-12.037 10.6255 -43.8032  255 255 255
9.8163 20.0086 -51.9943  255 255 255
8.86879 19.7456 -51.5804  255 255 255
5.95018 18.7785 -50.7338  255 255 255
17.3209 19.5356 -57.4509  255 255 255
-5.37604 16.4311 -45.0734  255 255 255
-18.2849 8.30421 -43.1342  255 255 255
-10.6844 16.5551 -41.3411  255 255 255
6.58788 20.3736 -50.2756  255 255 255
-3.93784 1.29712 -23.9073  255 255 255
16.2919 19.249 -57.1475  255 255 255
9.47971 18.794 -52.8746  255 255 255
8.36735 10.1139 -46.1505  255 255 255
-6.98839 -7.9106 -23.3612  255 255 255
0.726161 -10.1838 -20.4556  255 255 255
6.46754 -3.77097 -23.0071  255 255 255
-4.40902 -9.60722 -21.1867  255 255 255
-3.37291 -1.3609 -21.7209  255 255 255
-0.207388 3.00674 -21.5441  255 255 255
-3.12817 0.260199 -22.5302  255 255 255
4.5451 -0.648294 -21.4786  255 255 255
-0.452164 5.17844 -24.2104  255 255 255
6.28964 -2.29057 -21.5802  255 255 255
7.55277 13.3358 -50.318  255 255 255
-4.6602 -9.00082 -21.8177  255 255 255
-1.9588 10.6818 -47.0977  255 255 255
-8.73505 1.39176 -35.0278  255 255 255
6.77295 9.41773 -45.516  255 255 255
-7.76219 -8.05473 -23.2588  255 255 255
9.16684 18.9481 -52.7287  255 255 255
9.38971 9.83371 -45.7125  255 255 255
-5.82301 2.27507 -26.4944  255 255 255
-1.12042 4.03026 -22.8825  255 255 255
8.42489 13.097 -49.9416  255 255 255
6.79655 -2.6269 -22.5573  255 255 255
7.43358 -8.99918 -22.0339  255 255 255
-1.97199 10.4735 -47.0282  255 255 255
16.0966 -6.48543 -24.9901  255 255 255
-1.26358 -0.53722 -21.4229  255 255 255
-4.46618 -0.864897 -22.3542  255 255 255
16.6716 -0.54729 -30.0519  255 255 255
6.91932 1.64803 -24.4787  255 255 255
15.4372 1.6293 -31.6479  255 255 255
-4.70806 1.19018 -25.0167  255 255 255
-13.0563 7.35211 -43.1728  255 255 255
6.33757 -1.08813 -22.1201  255 255 255
3.46654 -1.10572 -20.8448  255 255 255
7.86084 -0.148741 -23.496  255 255 255
13.2418 -5.28011 -26.8027  255 255 255
-7.02918 14.0148 -45.8147  255 255 255
2.65282 -10 -20.7698  255 255 255
-18.9412 -5.90045 -25.8652  255 255 255
13.8093 21.9632 -53.1707  255 255 255
14.8082 6.70245 -31.0566  255 255 255
6.57265 8.99053 -44.971  255 255 255
4.05444 -2.23271 -20.6512  255 255 255
15.0041 -7.26731 -23.8235  255 255 255
5.55492 -2.41953 -20.4689  255 255 255
7.12275 0.266235 -23.9032  255 255 255
-2.18666 10.3166 -46.6954  255 255 255
3.56375 14.5883 -51.9582  255 255 255
-4.60743 8.53378 -44.6639  255 255 255
6.96249 19.7331 -50.2716  255 255 255
13.1208 21.7317 -53.2669  255 255 255
12.8079 20.0859 -54.9419  255 255 255
15.9284 19.4915 -56.7017  255 255 255
18.0493 19.8487 -57.2034  255 255 255
10.158 20.1675 -52.2217  255 255 255
6.65797 19.6561 -50.0606  255 255 255
5.65974 18.66 -50.4705  255 255 255
15.9284 19.4915 -56.7017  255 255 255
6.78979 19.9951 -50.3839  255 255 255
15.6572 23.0661 -53.6341  255 255 255
16.4934 20.0244 -56.2198  255 255 255
7.66491 19.9202 -50.6066  255 255 255
4.94618 19.1694 -50.495  255 255 255
16.3796 19.6809 -56.5859  255 255 255
19.9747 20.091 -58.8432  255 255 255
7.42605 19.8031 -50.4017  255 255 255
10.1337 20.3039 -51.0877  255 255 255
11.5821 20.9158 -53.2836  255 255 255
19.6455 20.0486 -58.5304  255 255 255
19.9789 19.9015 -59.5634  255 255 255
11.7638 21.4197 -52.4155  255 255 255
11.5908 20.9189 -53.2847  255 255 255
9.89081 21.0375 -51.8449  255 255 255
10.448 20.2638 -52.3752  255 255 255
7.44859 20.571 -50.4586  255 255 255
9.94923 20.2858 -50.9272  255 255 255
6.07956 19.7228 -49.9746  255 255 255
4.94618 19.1694 -50.495  255 255 255
-5.59304 -9.49824 -21.3125  255 255 255
7.11984 8.05755 -43.6688  255 255 255
11.0146 9.56366 -45.5199  255 255 255
7.11984 8.05755 -43.6688  255 255 255
-6.97713 -8.91256 -22.1032  255 255 255
8.4056 10.1534 -46.3755  255 255 255
13.0768 -5.66128 -26.2546  255 255 255
-3.19342 -9.52434 -21.299  255 255 255
7.01894 9.43761 -45.4987  255 255 255
-6.11688 -10.1129 -20.5821  255 255 255
11.7912 -6.67947 -24.9904  255 255 255
-7.64343 -8.36928 -22.8509  255 255 255
7.75407 -9.0568 -21.9042  255 255 255
8.50288 9.57058 -45.5713  255 255 255
-2.37857 6.66859 -42.0502  255 255 255
-3.31294 6.83323 -42.1741  255 255 255
-2.66986 6.83988 -42.2259  255 255 255
13.1861 -5.68169 -26.2308  255 255 255
1.67808 7.8183 -43.4334  255 255 255
8.19839 9.13581 -45.0808  255 255 255
-6.73806 -9.93736 -20.8345  255 255 255
4.67329 3.43245 -22.9105  255 255 255
-1.14372 4.64718 -23.6463  255 255 255
14.9834 0.582775 -33.9744  255 255 255
-5.23563 -9.37813 -21.4298  255 255 255
10.3969 -8.03718 -22.9217  255 255 255
5.14625 -1.28621 -21.537  255 255 255
11.4914 -5.74375 -26.0876  255 255 255
-1.11758 4.71106 -23.6865  255 255 255
16.485 19.6084 -56.8525  255 255 255
0.25628 -2.79456 -19.9238  255 255 255
1.97113 8.72343 -44.3319  255 255 255
8.56485 10.0591 -46.3356  255 255 255
10.7993 7.98221 -43.2655  255 255 255
-1.7015 -0.664681 -21.3202  255 255 255
-23.6072 -3.14306 -29.5276  255 255 255
3.03624 -6.86659 -21.4292  255 255 255
-8.26853 17.5274 -42.2466  255 255 255
10.7936 8.37137 -43.7772  255 255 255
-9.39329 -2.32601 -30.6626  255 255 255
11.9807 -6.13251 -25.6001  255 255 255
-17.0368 5.33795 -40.7968  255 255 255
4.95234 1.68178 -22.1107  255 255 255
-16.7141 5.97879 -41.5925  255 255 255
-6.03254 7.62402 -43.3344  255 255 255
-17.6641 -9.97389 -20.2867  255 255 255
-8.48554 7.0901 -42.8214  255 255 255
3.56548 -3.13741 -20.2009  255 255 255
4.78395 -2.90549 -20.7767  255 255 255
-18.5638 -8.65106 -22.1153  255 255 255
-19.9318 -8.08341 -22.7382  255 255 255
-7.70935 8.09047 -44.1802  255 255 255
7.61696 11.7294 -48.2303  255 255 255
-18.1822 -8.38981 -22.4581  255 255 255
-15.9257 -9.05326 -21.6767  255 255 255
2.31558 0.173606 -20.6793  255 255 255
-3.45646 10.2223 -46.4191  255 255 255
0.0443251 -10.1056 -20.6255  255 255 255
-7.60131 -7.964 -23.3036  255 255 255
1.50075 8.72982 -44.3961  255 255 255
-1.18382 -2.13388 -20.8125  255 255 255
-17.8994 -8.7069 -22.0829  255 255 255
-7.56758 -8.06554 -23.1729  255 255 255
-3.97261 -10.2252 -20.4139  255 255 255
-18.024 -9.93263 -20.9388  255 255 255
-16.7141 5.97879 -41.5925  255 255 255
-7.56627 -8.47915 -22.6603  255 255 255
-17.7361 -9.8079 -20.467  255 255 255
-3.05125 10.6962 -47.3622  255 255 255
-8.32117 6.03435 -41.3294  255 255 255
7.74014 2.69068 -27.1301  255 255 255
-18.2707 -9.56489 -20.8191  255 255 255
-17.8616 0.991559 -35.2203  255 255 255
8.34954 1.94286 -26.2337  255 255 255
-13.0239 -4.747 -27.586  255 255 255
-12.2355 -5.33738 -26.8584  255 255 255
2.784 -6.96787 -22.4207  255 255 255
7.64544 0.963429 -24.8421  255 255 255
