ply
format ascii 1.0
element vertex 1259
property float x
property float y
property float z
property uchar red
property uchar green
property uchar blue
end_header
1.61599 6.99734 -31.7776  255 255 255
0.127332 6.92724 -32.931  255 255 255
3.61251 6.87481 -31.7262  255 255 255
3.23679 6.78569 -32.6165  255 255 255
3.50147 6.85905 -32.0033  255 255 255
1.96076 6.97648 -31.6796  255 255 255
0.134872 6.90295 -32.8944  255 255 255
3.51117 6.84509 -31.9869  255 255 255
3.54491 6.84536 -31.9091  255 255 255
3.10989 6.75463 -32.912  255 255 255
3.51782 6.82422 -31.9694  255 255 255
3.53713 6.84656 -31.905  255 255 255
3.53653 6.82431 -31.9285  255 255 255
1.19764 6.91787 -32.1525  255 255 255
1.52581 6.95121 -31.8152  255 255 255
3.44099 6.79037 -32.1396  255 255 255
0.0453461 6.87047 -32.9283  255 255 255
3.24396 6.75031 -32.6636  255 255 255
3.44875 6.78399 -32.168  255 255 255
3.5809 6.827 -31.8264  255 255 255
3.1591 6.71219 -32.8318  255 255 255
0.114475 6.87183 -32.7012  255 255 255
1.42195 6.92912 -31.9239  255 255 255
2.10543 6.93552 -31.6549  255 255 255
3.53681 6.80036 -31.9376  255 255 255
3.5551 6.80217 -31.8958  255 255 255
3.61218 6.81534 -31.7769  255 255 255
3.61732 6.81406 -31.7872  255 255 255
3.40536 6.7691 -32.2863  255 255 255
3.51172 6.79083 -32.0297  255 255 255
3.53689 6.80115 -31.9145  255 255 255
-0.0977204 6.917 -32.3185  255 255 255
-0.226734 6.88646 -32.6267  255 255 255
2.8673 6.80749 -32.1185  255 255 255
3.42464 6.76184 -32.2182  255 255 255
3.5796 6.79553 -31.876  255 255 255
1.13496 6.88633 -32.1162  255 255 255
3.45225 6.76696 -32.1307  255 255 255
3.19678 6.75088 -32.2935  255 255 255
3.19678 6.75088 -32.2935  255 255 255
1.35132 6.89091 -31.9839  255 255 255
2.13028 6.90887 -31.5892  255 255 255
3.5857 6.77786 -31.8775  255 255 255
3.15617 6.66133 -32.8883  255 255 255
-1.10247 6.86631 -32.8543  255 255 255
3.571 6.76325 -31.8832  255 255 255
1.92644 6.90314 -31.6107  255 255 255
1.93017 6.90128 -31.6226  255 255 255
3.60685 6.76922 -31.8263  255 255 255
3.58835 6.76607 -31.8475  255 255 255
3.17907 6.67828 -32.5441  255 255 255
3.57656 6.75543 -31.8708  255 255 255
3.19872 6.66457 -32.4019  255 255 255
3.38042 6.70603 -32.2679  255 255 255
2.15609 6.8635 -31.6778  255 255 255
3.48198 6.70107 -32.1493  255 255 255
1.32931 6.85546 -31.8655  255 255 255
3.39979 6.65234 -32.4128  255 255 255
3.5958 6.73368 -31.8268  255 255 255
3.3586 6.64089 -32.4066  255 255 255
3.39918 6.6448 -32.3096  255 255 255
3.41535 6.65008 -32.3358  255 255 255
3.62639 6.72281 -31.7863  255 255 255
3.20956 6.59488 -32.779  255 255 255
3.20956 6.59488 -32.779  255 255 255
3.41646 6.63942 -32.3251  255 255 255
0.472401 6.73354 -32.6355  255 255 255
3.44177 6.63326 -32.3078  255 255 255
3.43725 6.63134 -32.299  255 255 255
3.16282 6.70604 -31.9768  255 255 255
1.74442 6.84577 -31.6146  255 255 255
3.63934 6.71049 -31.7699  255 255 255
1.64633 6.83829 -31.6872  255 255 255
3.63301 6.70667 -31.7801  255 255 255
3.07043 6.70536 -31.9879  255 255 255
3.47365 6.63425 -32.1629  255 255 255
3.63067 6.69808 -31.79  255 255 255
-0.0310232 6.76279 -32.504  255 255 255
3.61683 6.69693 -31.8019  255 255 255
-0.0819361 6.74955 -32.5902  255 255 255
1.73982 6.83095 -31.637  255 255 255
1.37391 6.79703 -31.9144  255 255 255
3.44157 6.6167 -32.2088  255 255 255
3.44995 6.61695 -32.2127  255 255 255
3.64013 6.70171 -31.7967  255 255 255
3.30422 6.5815 -32.5039  255 255 255
3.21354 6.55596 -32.6896  255 255 255
0.785724 6.67065 -32.6788  255 255 255
2.14761 6.79801 -31.6106  255 255 255
1.56952 6.79555 -31.7092  255 255 255
0.405493 6.66961 -32.6737  255 255 255
3.49331 6.59221 -32.2  255 255 255
2.98522 6.66696 -31.9311  255 255 255
0.427614 6.63973 -32.7561  255 255 255
2.26472 6.76299 -31.6596  255 255 255
1.49472 6.76598 -31.7584  255 255 255
3.4509 6.54472 -32.3185  255 255 255
3.47325 6.56092 -32.2098  255 255 255
3.47325 6.56092 -32.2098  255 255 255
3.42476 6.54313 -32.2692  255 255 255
1.98705 6.77069 -31.594  255 255 255
0.454013 6.63219 -32.5946  255 255 255
0.513568 6.66615 -32.3954  255 255 255
3.42574 6.52633 -32.3654  255 255 255
1.34682 6.74108 -31.8121  255 255 255
0.161289 6.63303 -32.6277  255 255 255
1.68384 6.75649 -31.6603  255 255 255
1.27217 6.72294 -31.8574  255 255 255
0.574204 6.58546 -32.5988  255 255 255
1.27875 6.68988 -31.9623  255 255 255
0.172105 6.60651 -32.6017  255 255 255
2.27125 6.70159 -31.6846  255 255 255
3.47453 6.48167 -32.2623  255 255 255
3.50034 6.50021 -32.171  255 255 255
2.01827 6.71143 -31.6378  255 255 255
0.247016 6.55071 -32.6124  255 255 255
3.5132 6.45193 -32.2509  255 255 255
3.64802 6.54979 -31.8369  255 255 255
1.87073 6.69682 -31.5925  255 255 255
0.208502 6.52733 -32.5954  255 255 255
2.1796 6.65083 -31.6725  255 255 255
1.90355 6.67781 -31.5925  255 255 255
1.43402 6.65057 -31.818  255 255 255
2.17063 6.65867 -31.6292  255 255 255
3.45277 6.43587 -32.2522  255 255 255
3.48189 6.41961 -32.2875  255 255 255
1.78139 6.65466 -31.6117  255 255 255
2.55024 6.57072 -31.7888  255 255 255
1.71567 6.65299 -31.6397  255 255 255
1.71618 6.64653 -31.6487  255 255 255
1.54811 6.62134 -31.7685  255 255 255
1.54811 6.62134 -31.7685  255 255 255
3.50669 6.35856 -32.3039  255 255 255
3.07462 6.37062 -32.4165  255 255 255
1.55025 6.63092 -31.6403  255 255 255
3.55293 6.38518 -32.1879  255 255 255
3.51622 6.38508 -32.1751  255 255 255
3.53011 6.36925 -32.179  255 255 255
3.4643 6.37951 -32.2789  255 255 255
3.12984 6.3361 -32.3491  255 255 255
1.40209 6.5764 -31.8378  255 255 255
3.06191 6.3295 -32.3732  255 255 255
2.31028 6.52728 -31.7819  255 255 255
3.41134 6.31646 -32.4158  255 255 255
1.42709 6.58039 -31.6958  255 255 255
3.50718 6.3537 -32.2061  255 255 255
0.652731 6.42271 -32.3592  255 255 255
1.76802 6.57152 -31.6128  255 255 255
3.03466 6.30164 -32.2357  255 255 255
3.09799 6.28741 -32.4008  255 255 255
1.38161 6.57598 -31.6558  255 255 255
3.0893 6.27622 -32.2983  255 255 255
3.0893 6.27622 -32.2983  255 255 255
3.56186 6.31403 -32.1297  255 255 255
3.60374 6.29309 -32.1548  255 255 255
1.77231 6.52277 -31.6843  255 255 255
1.3393 6.53562 -31.678  255 255 255
2.22231 6.49947 -31.6085  255 255 255
3.63674 6.32022 -31.9506  255 255 255
1.59274 6.51935 -31.6196  255 255 255
1.59274 6.51935 -31.6196  255 255 255
1.42976 6.51856 -31.6192  255 255 255
1.24122 6.39769 -31.9775  255 255 255
3.65549 6.283 -31.9327  255 255 255
3.68009 6.30458 -31.8374  255 255 255
2.4127 6.43135 -31.6355  255 255 255
2.43163 6.44122 -31.6219  255 255 255
1.62544 6.4457 -31.7318  255 255 255
1.57046 6.45573 -31.6545  255 255 255
1.67584 6.45168 -31.6356  255 255 255
3.33574 6.18353 -32.2367  255 255 255
2.23768 6.42605 -31.5969  255 255 255
3.64687 6.22405 -31.9699  255 255 255
3.63709 6.24247 -31.9741  255 255 255
1.57635 6.47173 -31.579  255 255 255
3.68993 6.23836 -31.867  255 255 255
3.69241 6.2549 -31.8662  255 255 255
1.70073 6.44637 -31.5522  255 255 255
1.42091 6.40534 -31.6742  255 255 255
2.29786 6.40156 -31.5536  255 255 255
2.08114 6.39425 -31.5675  255 255 255
1.5258 6.43509 -31.5345  255 255 255
1.80329 6.41651 -31.5316  255 255 255
1.81012 6.41735 -31.5426  255 255 255
3.26773 6.10181 -32.0486  255 255 255
0.351303 6.27262 -31.9799  255 255 255
0.678665 6.21463 -32.1318  255 255 255
2.18135 6.37682 -31.5111  255 255 255
0.704619 6.20637 -32.1177  255 255 255
1.69101 6.37791 -31.531  255 255 255
2.1432 6.36093 -31.4858  255 255 255
2.18834 6.22725 -31.8188  255 255 255
0.216311 6.1395 -32.3043  255 255 255
0.716521 6.18734 -32.1018  255 255 255
0.670074 6.18487 -32.0934  255 255 255
1.9385 6.26241 -31.7316  255 255 255
3.00987 6.09196 -31.9822  255 255 255
1.64715 6.33011 -31.5715  255 255 255
1.38266 6.24544 -31.7451  255 255 255
1.96484 6.29903 -31.521  255 255 255
2.36379 6.18241 -31.6948  255 255 255
0.763584 6.09133 -32.1001  255 255 255
1.38156 6.20137 -31.7659  255 255 255
3.21541 5.99264 -32.0535  255 255 255
2.28071 6.12123 -31.781  255 255 255
2.08065 6.09104 -31.832  255 255 255
0.91561 6.07718 -31.9689  255 255 255
3.48348 5.97718 -31.9439  255 255 255
1.97528 6.10763 -31.5967  255 255 255
1.99674 6.04348 -31.754  255 255 255
1.99565 6.04288 -31.755  255 255 255
1.97246 6.08319 -31.6519  255 255 255
1.97682 6.03571 -31.7465  255 255 255
1.49774 6.065 -31.7195  255 255 255
2.077 6.07677 -31.6472  255 255 255
2.07829 6.0402 -31.6611  255 255 255
1.73451 6.03637 -31.6748  255 255 255
3.31429 5.81878 -31.732  255 255 255
1.54775 5.92466 -31.7041  255 255 255
2.71661 5.82242 -31.6485  255 255 255
2.69184 5.84539 -31.6553  255 255 255
2.73572 5.80502 -31.7924  255 255 255
2.68817 5.80931 -31.6423  255 255 255
3.08542 5.78046 -31.7351  255 255 255
0.937152 5.86849 -31.7529  255 255 255
1.53292 5.84032 -31.7078  255 255 255
3.00647 5.83335 -31.6147  255 255 255
2.60262 5.77477 -31.6273  255 255 255
3.43907 5.77413 -31.7011  255 255 255
1.22582 5.82675 -31.7046  255 255 255
2.92934 5.72961 -31.7437  255 255 255
2.66136 5.78732 -31.5944  255 255 255
3.09757 5.72668 -31.6901  255 255 255
1.78378 5.78982 -31.6551  255 255 255
3.52002 5.72676 -31.6433  255 255 255
2.63058 5.72186 -31.6737  255 255 255
3.33127 5.72318 -31.626  255 255 255
2.87366 5.6391 -31.5831  255 255 255
2.56969 5.65341 -31.4677  255 255 255
1.18186 5.74498 -31.5854  255 255 255
2.48745 5.66839 -31.6032  255 255 255
1.83478 5.7056 -31.5562  255 255 255
0.844067 5.65121 -31.5304  255 255 255
1.57937 5.59624 -31.5464  255 255 255
3.21567 5.58685 -31.4767  255 255 255
1.60573 5.61971 -31.5128  255 255 255
1.41005 5.61287 -31.5028  255 255 255
1.63287 5.60785 -31.5241  255 255 255
-0.604546 5.3736 -31.9799  255 255 255
2.71849 5.56733 -31.4749  255 255 255
1.53735 5.58858 -31.4854  255 255 255
2.87595 5.56061 -31.4437  255 255 255
1.53295 5.58334 -31.4668  255 255 255
1.78876 5.53437 -31.46  255 255 255
2.45997 5.52755 -31.4421  255 255 255
0.910414 5.58067 -31.4267  255 255 255
1.68776 5.54958 -31.4413  255 255 255
1.6866 5.52666 -31.4724  255 255 255
3.24685 8.25241 -32.5938  255 255 255
0.586824 8.59687 -33.5242  255 255 255
0.848855 8.57715 -33.5211  255 255 255
3.07363 8.68595 -34.3928  255 255 255
0.187137 8.5455 -33.2518  255 255 255
0.186231 8.54895 -33.2669  255 255 255
1.9391 8.63955 -34.0626  255 255 255
3.25758 8.21827 -32.5717  255 255 255
2.86935 8.64492 -34.4024  255 255 255
-0.199257 8.52197 -33.1056  255 255 255
-0.187523 8.50735 -33.0612  255 255 255
0.317949 8.53919 -33.4075  255 255 255
1.0558 8.55677 -33.7356  255 255 255
1.65693 8.58157 -33.9734  255 255 255
2.5167 8.60509 -34.3085  255 255 255
2.5167 8.60509 -34.3085  255 255 255
0.103446 8.47997 -33.163  255 255 255
3.16996 8.58499 -34.3462  255 255 255
0.488364 8.50065 -33.4777  255 255 255
3.33273 8.6243 -34.5312  255 255 255
3.23077 8.18861 -32.6521  255 255 255
0.201103 8.47838 -33.3257  255 255 255
-0.134424 8.45927 -33.1505  255 255 255
2.62752 8.56856 -34.3735  255 255 255
3.163 8.21455 -32.8536  255 255 255
2.41873 8.56962 -34.2864  255 255 255
3.30945 8.14402 -32.5438  255 255 255
0.582256 8.46429 -33.5439  255 255 255
0.581058 8.47784 -33.575  255 255 255
2.40856 8.53587 -34.3008  255 255 255
0.180377 8.43534 -33.3186  255 255 255
1.22753 8.48178 -33.8669  255 255 255
1.22303 8.48024 -33.8471  255 255 255
3.23802 7.98507 -31.9852  255 255 255
3.20439 8.03191 -32.0983  255 255 255
2.60923 8.53285 -34.4407  255 255 255
3.23422 7.98849 -31.965  255 255 255
2.51183 8.50877 -34.3551  255 255 255
0.533162 8.4191 -33.5857  255 255 255
0.539641 8.4052 -33.5  255 255 255
0.200971 8.39172 -33.349  255 255 255
0.581535 8.40944 -33.6278  255 255 255
0.581643 8.40789 -33.6202  255 255 255
0.175931 8.37816 -33.3401  255 255 255
0.880276 8.40709 -33.7308  255 255 255
1.69437 8.41589 -34.149  255 255 255
3.34377 7.8982 -31.8253  255 255 255
0.523004 8.37172 -33.618  255 255 255
3.43206 8.4573 -34.6774  255 255 255
1.60029 8.39544 -34.0726  255 255 255
3.2105 8.07518 -32.7567  255 255 255
3.26594 7.91701 -31.9751  255 255 255
3.31671 7.90119 -31.9013  255 255 255
2.00192 8.39036 -34.1995  255 255 255
3.48638 8.432 -34.8451  255 255 255
-0.532408 8.30968 -33.0439  255 255 255
1.73557 8.37613 -34.194  255 255 255
3.33031 7.86688 -31.8629  255 255 255
-0.514907 8.28205 -32.9827  255 255 255
3.21127 7.90619 -32.0682  255 255 255
1.66249 8.33906 -34.1559  255 255 255
1.65682 8.33219 -34.0853  255 255 255
1.38432 8.31706 -34.008  255 255 255
2.04713 8.33838 -34.2859  255 255 255
3.39582 7.80679 -31.6691  255 255 255
0.55428 8.30047 -33.6813  255 255 255
1.49113 8.32128 -34.1134  255 255 255
1.49099 8.31357 -34.0533  255 255 255
2.35912 8.34787 -34.4093  255 255 255
3.12772 8.03197 -32.883  255 255 255
3.13151 8.04015 -32.9149  255 255 255
3.25964 7.87539 -31.9833  255 255 255
3.18003 8.01417 -32.8417  255 255 255
3.18003 8.01417 -32.8417  255 255 255
1.24172 8.29214 -33.9665  255 255 255
1.39513 8.3069 -34.1163  255 255 255
3.39533 7.816 -31.7797  255 255 255
-0.174117 8.25057 -33.2212  255 255 255
2.52851 8.30926 -34.4735  255 255 255
0.400111 8.2568 -33.5876  255 255 255
0.400111 8.2568 -33.5876  255 255 255
2.39317 8.32335 -34.5121  255 255 255
1.62966 8.27972 -34.1284  255 255 255
1.25171 8.26781 -33.9944  255 255 255
0.213629 8.23166 -33.4029  255 255 255
0.930739 8.2574 -33.8476  255 255 255
1.22018 8.26073 -34.0015  255 255 255
1.21827 8.26361 -34.0104  255 255 255
1.22288 8.25259 -33.9421  255 255 255
-0.0105785 8.17907 -32.9846  255 255 255
1.26676 8.24506 -34.049  255 255 255
1.64066 8.23854 -34.1348  255 255 255
0.802402 8.21406 -33.7234  255 255 255
-0.104941 8.20356 -33.2771  255 255 255
3.39249 7.77139 -31.7665  255 255 255
3.132 7.98213 -32.9771  255 255 255
1.415 8.19884 -33.9934  255 255 255
1.63841 8.20312 -34.162  255 255 255
3.43854 7.76002 -31.8299  255 255 255
3.45144 7.73217 -31.6437  255 255 255
3.4701 7.72042 -31.5716  255 255 255
-0.992509 8.27566 -33.678  255 255 255
3.13975 7.94041 -32.9789  255 255 255
3.14165 7.94068 -32.9777  255 255 255
3.1737 7.92045 -32.8873  255 255 255
1.58582 8.18343 -34.1873  255 255 255
1.63634 8.18953 -34.2462  255 255 255
0.494772 8.14513 -33.6621  255 255 255
0.877674 8.13843 -33.7879  255 255 255
0.870106 8.10886 -33.7343  255 255 255
0.779114 8.1201 -33.7981  255 255 255
0.493618 8.09637 -33.7153  255 255 255
0.164649 8.09431 -33.5584  255 255 255
0.77388 8.08278 -33.8262  255 255 255
0.109908 8.06756 -33.4379  255 255 255
0.710073 8.07077 -33.745  255 255 255
1.16404 8.08846 -34.0452  255 255 255
0.235044 8.05696 -33.5858  255 255 255
0.235044 8.05696 -33.5858  255 255 255
0.720833 8.08192 -33.8906  255 255 255
0.72473 8.08058 -33.8466  255 255 255
0.354608 8.06288 -33.6583  255 255 255
3.26726 7.71585 -32.0847  255 255 255
0.55308 8.0397 -33.7719  255 255 255
0.721683 8.01762 -33.7549  255 255 255
3.18829 7.70448 -32.2312  255 255 255
3.17657 7.70274 -32.2436  255 255 255
1.19692 7.99892 -34.1023  255 255 255
0.481959 7.97789 -33.7383  255 255 255
0.484005 7.99339 -33.811  255 255 255
0.462722 7.97901 -33.7877  255 255 255
0.468083 7.97442 -33.7562  255 255 255
1.65011 7.97244 -34.412  255 255 255
1.64818 7.98238 -34.4486  255 255 255
-0.207935 7.9644 -33.2748  255 255 255
0.453123 7.95378 -33.6553  255 255 255
3.20991 7.72316 -32.9008  255 255 255
-0.0432758 7.9309 -33.3664  255 255 255
-0.0443431 7.93704 -33.374  255 255 255
3.23027 7.69344 -32.861  255 255 255
0.76424 7.91485 -33.9874  255 255 255
3.21984 7.66551 -32.741  255 255 255
3.29199 7.59408 -32.0908  255 255 255
3.2693 7.65344 -32.812  255 255 255
3.24214 7.66189 -32.8727  255 255 255
0.029703 7.87628 -33.4027  255 255 255
3.15277 7.66603 -33.0739  255 255 255
3.50324 7.54079 -31.736  255 255 255
-1.2526 8.0147 -34.2982  255 255 255
3.256 7.63082 -32.8381  255 255 255
3.25656 7.63329 -32.8472  255 255 255
3.28104 7.57083 -32.1109  255 255 255
-0.253985 7.83244 -33.211  255 255 255
-0.303433 7.84984 -33.3331  255 255 255
0.163764 7.83548 -33.5165  255 255 255
0.298672 7.83296 -33.6537  255 255 255
3.4181 7.52625 -31.8387  255 255 255
-0.230579 7.83231 -33.2388  255 255 255
3.46164 7.49838 -31.7282  255 255 255
3.48209 7.50896 -31.7605  255 255 255
3.52423 7.50229 -31.7015  255 255 255
2.98726 7.65339 -34.1073  255 255 255
0.342337 7.7636 -33.6245  255 255 255
0.878922 7.75446 -34.2304  255 255 255
-0.14169 7.7384 -32.9695  255 255 255
-0.112275 7.74953 -33.3523  255 255 255
0.025385 7.72258 -33.3621  255 255 255
0.0379806 7.72159 -33.4369  255 255 255
-1.04346 7.81316 -34.0574  255 255 255
3.21299 7.46615 -32.2688  255 255 255
3.21818 7.46499 -32.2753  255 255 255
3.30131 7.45227 -32.133  255 255 255
3.41081 7.42427 -31.8329  255 255 255
3.22164 7.45074 -32.2799  255 255 255
3.42819 7.42866 -31.8261  255 255 255
1.68908 7.61382 -34.0383  255 255 255
3.54056 7.40991 -31.714  255 255 255
3.55085 7.40781 -31.708  255 255 255
1.89099 7.58412 -34.1615  255 255 255
3.32945 7.4093 -32.043  255 255 255
1.82887 7.5445 -34.57  255 255 255
3.2075 7.42187 -32.325  255 255 255
-0.292012 7.63903 -33.2452  255 255 255
1.88017 7.54039 -34.0637  255 255 255
0.645286 7.58832 -33.9012  255 255 255
3.18083 7.39206 -32.3665  255 255 255
1.85942 7.51459 -33.9303  255 255 255
1.89273 7.52472 -33.921  255 255 255
1.89767 7.51825 -33.96  255 255 255
3.42151 7.36526 -31.8981  255 255 255
0.822861 7.56132 -33.7761  255 255 255
1.55174 7.51257 -33.933  255 255 255
1.52823 7.52624 -34.4194  255 255 255
1.9221 7.50652 -34.0492  255 255 255
1.46193 7.52189 -34.0336  255 255 255
-0.940622 7.63753 -33.826  255 255 255
-0.227967 7.57303 -33.4174  255 255 255
2.71141 7.37433 -33.8945  255 255 255
0.893795 7.50105 -33.7351  255 255 255
-0.285126 7.5438 -33.3437  255 255 255
-0.894846 7.57853 -33.7467  255 255 255
3.52453 7.30024 -31.6725  255 255 255
-0.261802 7.53318 -33.3349  255 255 255
3.29173 7.32284 -32.2311  255 255 255
3.57155 7.29461 -31.6894  255 255 255
1.54287 7.42062 -33.8215  255 255 255
2.48939 7.39007 -34.1753  255 255 255
-0.297885 7.49617 -33.3029  255 255 255
3.54539 7.272 -31.7445  255 255 255
3.55876 7.27129 -31.7183  255 255 255
1.29949 7.40286 -33.8415  255 255 255
3.55361 7.27199 -31.7325  255 255 255
3.52688 7.26497 -31.6865  255 255 255
3.52734 7.25229 -31.699  255 255 255
3.53788 7.25056 -31.6705  255 255 255
3.56049 7.25491 -31.7446  255 255 255
3.56049 7.25491 -31.7446  255 255 255
0.381399 7.39525 -33.5109  255 255 255
3.12971 7.2425 -32.4476  255 255 255
3.25739 7.23809 -32.3566  255 255 255
3.38974 7.22792 -32.0111  255 255 255
3.5405 7.2304 -31.7757  255 255 255
3.54911 7.21872 -31.7483  255 255 255
1.52052 7.26109 -33.6284  255 255 255
3.24714 7.18644 -32.3825  255 255 255
3.25158 7.17334 -32.3649  255 255 255
3.41857 7.1687 -32.0447  255 255 255
3.25395 7.14698 -32.3789  255 255 255
1.38517 7.21236 -33.547  255 255 255
3.41575 7.15431 -32.0165  255 255 255
3.41311 7.15183 -32.0097  255 255 255
1.85639 7.23229 -32.0019  255 255 255
3.52449 7.13279 -31.7682  255 255 255
3.53035 7.13202 -31.7774  255 255 255
0.509671 7.23259 -33.1585  255 255 255
3.37184 7.13282 -32.1373  255 255 255
3.36789 7.12612 -32.1285  255 255 255
0.771646 7.19636 -33.1581  255 255 255
3.40921 7.10984 -32.0173  255 255 255
1.20924 7.15686 -33.4589  255 255 255
-0.208833 7.23753 -33.0596  255 255 255
0.634107 7.18001 -33.4249  255 255 255
3.25598 7.09751 -32.4323  255 255 255
0.760983 7.1666 -33.1648  255 255 255
0.851182 7.13628 -33.24  255 255 255
0.671845 7.15268 -33.3023  255 255 255
3.54165 7.09048 -31.7777  255 255 255
3.31318 7.0437 -32.3157  255 255 255
-0.9475 7.24256 -32.8037  255 255 255
1.56967 7.14547 -32.0092  255 255 255
3.36744 7.0372 -32.1975  255 255 255
1.04508 7.08687 -33.333  255 255 255
3.39735 7.02853 -32.1182  255 255 255
3.39717 7.03277 -32.1203  255 255 255
0.128934 7.14693 -33.0328  255 255 255
0.61653 7.1133 -32.9497  255 255 255
3.40502 7.03357 -32.1154  255 255 255
3.43008 7.02356 -32.0394  255 255 255
3.43146 7.02163 -32.0408  255 255 255
3.48437 7.0247 -31.9034  255 255 255
3.42054 6.99883 -32.0829  255 255 255
3.45446 7.00576 -31.9846  255 255 255
3.45331 7.00683 -32.0147  255 255 255
1.44342 7.08067 -32.3324  255 255 255
3.40194 6.97231 -32.129  255 255 255
3.40194 6.97231 -32.129  255 255 255
1.42035 7.07 -32.2326  255 255 255
3.55673 6.98399 -31.8187  255 255 255
3.56387 6.98394 -31.8308  255 255 255
3.56387 6.98394 -31.8308  255 255 255
3.42261 6.95931 -32.0912  255 255 255
3.41296 6.95159 -32.1329  255 255 255
3.47816 6.96445 -31.9862  255 255 255
3.47968 6.96147 -31.987  255 255 255
1.75538 7.0756 -31.7648  255 255 255
3.33431 6.92279 -32.3819  255 255 255
1.41405 7.05002 -32.2178  255 255 255
3.25847 6.91427 -32.5401  255 255 255
3.1956 6.92798 -32.3679  255 255 255
3.46881 6.94902 -32.0107  255 255 255
3.50116 6.94737 -31.9483  255 255 255
3.52848 6.95218 -31.8771  255 255 255
2.25272 7.02526 -31.7432  255 255 255
3.51518 6.93 -31.9544  255 255 255
3.42173 6.91527 -32.1454  255 255 255
0.707683 6.97373 -32.862  255 255 255
3.47426 6.9186 -32.0282  255 255 255
3.47367 6.91415 -32.0247  255 255 255
0.721824 6.95805 -32.8061  255 255 255
3.19871 6.84957 -32.6094  255 255 255
3.46666 6.89024 -32.0563  255 255 255
3.5076 6.89989 -31.9651  255 255 255
3.22335 6.83221 -32.6208  255 255 255
0.778507 6.93406 -32.8503  255 255 255
1.84591 7.0105 -31.7145  255 255 255
3.39434 6.85381 -32.2315  255 255 255
3.4745 6.8733 -32.0305  255 255 255
3.13861 6.83186 -32.5648  255 255 255
3.40674 6.84257 -32.221  255 255 255
3.40144 6.84033 -32.217  255 255 255
1.73153 6.98714 -31.7096  255 255 255
0.659071 6.85451 -32.9999  255 255 255
3.35783 6.81425 -32.2158  255 255 255
3.38982 6.81372 -32.29  255 255 255
0.0852868 6.90055 -32.7244  255 255 255
3.4488 6.8042 -32.1753  255 255 255
1.91443 6.9623 -31.6377  255 255 255
3.42828 6.79032 -32.2061  255 255 255
1.95742 7.01122 -31.1765  255 255 255
3.55832 6.8194 -31.8716  255 255 255
0.210407 6.81858 -32.8725  255 255 255
3.40104 6.77502 -32.2452  255 255 255
3.45834 6.77767 -32.1639  255 255 255
3.56898 6.78875 -31.8797  255 255 255
3.39533 6.73203 -32.2978  255 255 255
3.59571 6.7902 -31.8468  255 255 255
3.48396 6.74663 -32.0978  255 255 255
3.39326 6.72125 -32.3397  255 255 255
3.16567 6.6607 -32.8643  255 255 255
3.50034 6.73455 -32.0744  255 255 255
3.50034 6.73455 -32.0744  255 255 255
-0.896801 6.84983 -32.8323  255 255 255
0.656528 6.78816 -32.7141  255 255 255
1.5031 6.8797 -31.8245  255 255 255
2.11615 6.88246 -31.6138  255 255 255
3.45711 6.69754 -32.2027  255 255 255
3.58676 6.74873 -31.8687  255 255 255
3.49054 6.73391 -32.0706  255 255 255
3.0261 6.63449 -32.8358  255 255 255
3.14005 6.64074 -32.4287  255 255 255
3.27697 6.64497 -32.4107  255 255 255
3.45368 6.67704 -32.2294  255 255 255
3.45368 6.67704 -32.2294  255 255 255
2.27271 6.84678 -31.6589  255 255 255
3.51012 6.69654 -32.0828  255 255 255
0.558465 6.76626 -32.5221  255 255 255
3.47567 6.68417 -32.178  255 255 255
0.347705 6.74251 -32.6319  255 255 255
0.306774 6.73879 -32.6056  255 255 255
1.41644 6.82502 -31.9475  255 255 255
0.548743 6.72506 -32.7531  255 255 255
2.3243 6.81294 -31.7513  255 255 255
3.46838 6.65602 -32.2051  255 255 255
3.46838 6.65602 -32.2051  255 255 255
3.61217 6.71667 -31.8351  255 255 255
3.61012 6.71616 -31.8315  255 255 255
3.40275 6.63072 -32.4133  255 255 255
3.38961 6.6297 -32.3989  255 255 255
3.49278 6.68943 -32.0627  255 255 255
3.51158 6.6824 -32.0871  255 255 255
3.51413 6.6787 -32.0877  255 255 255
0.318739 6.73332 -32.5952  255 255 255
3.13129 6.59726 -32.7628  255 255 255
0.273877 6.72354 -32.7499  255 255 255
3.36556 6.62557 -32.2899  255 255 255
3.38067 6.62341 -32.3121  255 255 255
0.164387 6.72956 -32.6985  255 255 255
3.59492 6.70075 -31.8138  255 255 255
0.366498 6.7189 -32.6006  255 255 255
3.17786 6.60723 -32.4431  255 255 255
0.555295 6.68335 -32.7012  255 255 255
3.27878 6.59134 -32.2503  255 255 255
3.64023 6.68299 -31.7673  255 255 255
0.55051 6.67833 -32.6727  255 255 255
3.09813 6.66984 -31.9457  255 255 255
3.3182 6.56294 -32.5276  255 255 255
3.49868 6.59851 -32.1801  255 255 255
3.52577 6.61458 -32.1029  255 255 255
3.39173 6.55186 -32.4693  255 255 255
0.072145 6.67697 -32.6848  255 255 255
3.47525 6.57063 -32.2787  255 255 255
3.50471 6.56566 -32.195  255 255 255
3.50135 6.56698 -32.1936  255 255 255
3.51097 6.56681 -32.2016  255 255 255
3.42034 6.53999 -32.3182  255 255 255
2.06883 6.76129 -31.617  255 255 255
2.44255 6.69689 -31.8154  255 255 255
2.26678 6.72503 -31.6829  255 255 255
0.469086 6.60777 -32.6215  255 255 255
0.475059 6.60568 -32.5958  255 255 255
1.53362 6.74252 -31.7391  255 255 255
0.296507 6.61662 -32.4802  255 255 255
1.20672 6.7255 -31.8556  255 255 255
1.48495 6.71617 -31.8081  255 255 255
2.09248 6.73256 -31.6237  255 255 255
0.400204 6.64237 -32.3137  255 255 255
0.487355 6.58574 -32.5514  255 255 255
3.46748 6.53419 -32.1232  255 255 255
3.51895 6.51347 -32.1934  255 255 255
0.271455 6.59631 -32.5565  255 255 255
2.28107 6.67412 -31.686  255 255 255
0.56286 6.5378 -32.6016  255 255 255
3.5563 6.52586 -32.0127  255 255 255
0.601019 6.53664 -32.5519  255 255 255
1.21064 6.66686 -31.8767  255 255 255
1.22034 6.68373 -31.8204  255 255 255
1.90887 6.70548 -31.5895  255 255 255
1.91271 6.69888 -31.561  255 255 255
3.45235 6.46882 -32.2592  255 255 255
3.4816 6.42303 -32.373  255 255 255
3.62307 6.49891 -31.926  255 255 255
0.168617 6.50292 -32.5931  255 255 255
3.46139 6.39454 -32.2927  255 255 255
0.435536 6.46616 -32.3236  255 255 255
2.34793 6.5114 -31.859  255 255 255
3.09396 6.31957 -32.4434  255 255 255
3.6037 6.34732 -32.1079  255 255 255
1.56646 6.58733 -31.6358  255 255 255
0.378172 6.44011 -32.3161  255 255 255
3.46608 6.27566 -32.3232  255 255 255
0.487399 6.45569 -32.1603  255 255 255
3.59892 6.31773 -32.0159  255 255 255
3.59549 6.32404 -32.0167  255 255 255
1.92617 6.50441 -31.6783  255 255 255
2.08283 6.51509 -31.596  255 255 255
1.96513 6.53205 -31.555  255 255 255
1.14055 6.41266 -32.0206  255 255 255
1.75852 6.53058 -31.5707  255 255 255
2.25662 6.4858 -31.6234  255 255 255
3.65248 6.31034 -31.9373  255 255 255
2.0029 6.49711 -31.5691  255 255 255
3.58417 6.28777 -32.0367  255 255 255
3.68803 6.32726 -31.8236  255 255 255
3.52262 6.19407 -32.2504  255 255 255
1.58072 6.46693 -31.6649  255 255 255
0.394268 6.3278 -32.1955  255 255 255
1.59252 6.47862 -31.5841  255 255 255
3.66345 6.24553 -31.9282  255 255 255
2.2063 6.42503 -31.5536  255 255 255
0.391002 6.34384 -32.0104  255 255 255
1.52022 6.4528 -31.5564  255 255 255
1.28176 6.37842 -31.7782  255 255 255
1.59084 6.41979 -31.5311  255 255 255
2.2974 6.37813 -31.5694  255 255 255
1.52199 6.44448 -31.5356  255 255 255
1.52192 6.44582 -31.5325  255 255 255
3.68262 6.19352 -31.9058  255 255 255
0.386742 6.27421 -32.0981  255 255 255
2.30037 6.27568 -31.8478  255 255 255
3.63205 6.08714 -32.1229  255 255 255
3.69267 6.15893 -31.8991  255 255 255
1.62225 6.28682 -31.7344  255 255 255
1.98785 6.3483 -31.5345  255 255 255
2.12212 6.35537 -31.505  255 255 255
1.95512 6.33908 -31.5055  255 255 255
2.23053 6.19784 -31.634  255 255 255
1.57133 6.20004 -31.6737  255 255 255
1.7189 6.17341 -31.6258  255 255 255
2.30157 6.06247 -31.7665  255 255 255
2.36634 6.03768 -31.7579  255 255 255
2.41887 6.00438 -31.7285  255 255 255
3.36381 5.87894 -31.8142  255 255 255
2.4923 5.9031 -31.7308  255 255 255
2.51125 5.86383 -31.8105  255 255 255
1.72662 5.90546 -31.593  255 255 255
2.70192 5.76797 -31.7527  255 255 255
2.60615 5.75749 -31.6017  255 255 255
3.36705 5.74777 -31.659  255 255 255
0.928996 5.80581 -31.6904  255 255 255
3.27769 5.70218 -31.5959  255 255 255
1.01713 5.74911 -31.6683  255 255 255
3.24176 5.66447 -31.5623  255 255 255
1.31065 5.68208 -31.6308  255 255 255
1.31515 5.68097 -31.6396  255 255 255
1.1534 5.68321 -31.6141  255 255 255
2.48822 5.6295 -31.4561  255 255 255
1.40113 5.634 -31.5899  255 255 255
1.44254 5.63809 -31.5078  255 255 255
0.848616 5.62738 -31.502  255 255 255
1.92421 5.5999 -31.5377  255 255 255
1.59437 5.61285 -31.5042  255 255 255
1.39116 5.60585 -31.4826  255 255 255
1.94226 5.58243 -31.4819  255 255 255
1.67861 5.60533 -31.4463  255 255 255
1.74849 5.58946 -31.4994  255 255 255
1.5396 5.59588 -31.479  255 255 255
1.82826 5.57313 -31.4664  255 255 255
3.29772 5.54598 -31.4292  255 255 255
2.72105 5.53749 -31.4218  255 255 255
3.21491 8.26199 -32.6269  255 255 255
0.0388017 8.5507 -33.1733  255 255 255
2.63883 8.68003 -34.3017  255 255 255
3.38718 8.69045 -34.4572  255 255 255
3.4354 8.60671 -34.4206  255 255 255
2.35111 8.63752 -34.216  255 255 255
2.61261 8.65334 -34.3117  255 255 255
-0.543421 8.49564 -32.9536  255 255 255
0.486398 8.52208 -33.3817  255 255 255
3.26175 8.18128 -32.5029  255 255 255
3.25848 8.17835 -32.4935  255 255 255
-0.226599 8.51136 -33.1155  255 255 255
1.0971 8.58315 -33.7684  255 255 255
1.0971 8.58315 -33.7684  255 255 255
3.09411 8.6383 -34.4267  255 255 255
1.08201 8.54262 -33.761  255 255 255
1.07452 8.55238 -33.7576  255 255 255
1.70169 8.54813 -34.0537  255 255 255
2.45553 8.56797 -34.2839  255 255 255
2.4572 8.56713 -34.2849  255 255 255
0.278694 8.46277 -33.3704  255 255 255
2.51587 8.55313 -34.3306  255 255 255
2.4849 8.52652 -34.3033  255 255 255
2.4849 8.52652 -34.3033  255 255 255
1.64632 8.49158 -34.0044  255 255 255
2.63514 8.55761 -34.4071  255 255 255
2.62774 8.57482 -34.582  255 255 255
3.29269 8.10964 -32.5459  255 255 255
3.27367 8.11545 -32.5863  255 255 255
2.10992 8.51361 -34.2576  255 255 255
2.2133 8.48302 -34.1543  255 255 255
-0.247067 8.4081 -33.1189  255 255 255
-0.252219 8.41295 -33.14  255 255 255
-0.276954 8.39576 -33.0825  255 255 255
3.35778 8.48294 -34.5052  255 255 255
3.27495 8.08247 -32.535  255 255 255
3.22478 7.96988 -32.0207  255 255 255
3.22478 7.96988 -32.0207  255 255 255
1.24671 8.40025 -33.8629  255 255 255
3.15836 8.10176 -32.7776  255 255 255
2.52453 8.39269 -34.4014  255 255 255
3.19165 7.95672 -32.1018  255 255 255
3.22586 7.94095 -32.0736  255 255 255
1.66544 8.38035 -34.1514  255 255 255
1.66795 8.38286 -34.1545  255 255 255
-0.288642 8.29991 -33.1068  255 255 255
-0.169492 8.27693 -33.0667  255 255 255
1.63578 8.34082 -34.0872  255 255 255
-0.581244 8.29683 -33.0812  255 255 255
0.235302 8.25877 -33.4236  255 255 255
-0.402055 8.21837 -32.9529  255 255 255
-0.113899 8.2296 -33.1381  255 255 255
-0.322336 8.23807 -33.1268  255 255 255
3.40153 7.80118 -31.8006  255 255 255
3.21328 7.86935 -32.109  255 255 255
3.33737 7.81778 -31.9089  255 255 255
1.61907 8.24884 -34.1453  255 255 255
3.17181 7.96414 -32.8757  255 255 255
3.17181 7.96414 -32.8757  255 255 255
3.17444 8.24971 -34.5776  255 255 255
0.739188 8.2039 -33.7068  255 255 255
3.38 7.75122 -31.7572  255 255 255
1.05578 8.19272 -33.9319  255 255 255
3.16417 7.94442 -32.9286  255 255 255
0.674615 8.18605 -33.849  255 255 255
0.803774 8.1614 -33.7919  255 255 255
0.949484 8.16131 -33.8475  255 255 255
0.165015 8.13268 -33.4482  255 255 255
-0.133119 8.13134 -33.2654  255 255 255
-0.318589 8.12344 -33.1633  255 255 255
0.739092 8.1102 -33.7812  255 255 255
3.2095 7.74281 -32.1667  255 255 255
0.518754 8.06357 -33.6826  255 255 255
3.28578 7.71767 -32.0199  255 255 255
0.307896 8.04536 -33.5731  255 255 255
0.804951 8.03696 -33.8498  255 255 255
1.65838 8.05663 -34.3637  255 255 255
1.92593 8.04973 -34.5544  255 255 255
0.456888 7.98912 -33.6717  255 255 255
-1.37519 8.16137 -34.4456  255 255 255
3.29427 7.62587 -32.0085  255 255 255
-1.18681 8.1187 -34.4181  255 255 255
1.08489 7.94611 -34.0541  255 255 255
3.07799 7.74926 -33.1683  255 255 255
3.22616 7.68902 -32.7081  255 255 255
1.6036 7.8992 -34.5118  255 255 255
0.493609 7.84199 -33.7106  255 255 255
0.481469 7.84496 -33.7569  255 255 255
2.37942 7.789 -34.3872  255 255 255
2.41304 7.79677 -34.6838  255 255 255
-1.24721 7.97952 -34.2204  255 255 255
-1.05154 7.96908 -34.2371  255 255 255
3.22943 7.6257 -32.9476  255 255 255
0.406872 7.82631 -33.6986  255 255 255
3.44733 7.50828 -31.819  255 255 255
0.885458 7.79888 -34.0485  255 255 255
0.502176 7.76604 -33.2933  255 255 255
3.331 7.50552 -31.9606  255 255 255
3.28288 7.58344 -33.1354  255 255 255
3.25848 7.57493 -33.0584  255 255 255
3.24962 7.51655 -32.194  255 255 255
3.27369 7.50768 -32.1295  255 255 255
1.08845 7.75659 -34.2056  255 255 255
2.38763 7.67942 -34.2344  255 255 255
1.79513 7.70838 -34.2253  255 255 255
3.24724 7.48564 -32.2064  255 255 255
0.924885 7.71002 -34.1143  255 255 255
-0.0527556 7.70246 -32.9032  255 255 255
-0.0527556 7.70246 -32.9032  255 255 255
-0.306979 7.72083 -33.3222  255 255 255
0.200528 7.66918 -33.1917  255 255 255
3.26983 7.49445 -33.0453  255 255 255
0.213627 7.67988 -33.5817  255 255 255
0.64426 7.65521 -33.9025  255 255 255
1.54978 7.60466 -34.0574  255 255 255
1.54695 7.60868 -34.1427  255 255 255
3.39821 7.40581 -31.8763  255 255 255
1.8662 7.59371 -34.1796  255 255 255
-0.272035 7.66629 -33.6229  255 255 255
-0.305612 7.61867 -33.2391  255 255 255
-0.24424 7.61196 -33.3722  255 255 255
-0.180903 7.59145 -33.0143  255 255 255
1.83597 7.48654 -33.9  255 255 255
3.19299 7.38029 -32.4232  255 255 255
2.46687 7.42353 -33.8868  255 255 255
-0.968696 7.5949 -33.7777  255 255 255
2.39451 7.412 -34.1768  255 255 255
3.21735 7.32782 -32.3463  255 255 255
3.21493 7.32822 -32.2029  255 255 255
3.24745 7.33098 -32.2816  255 255 255
-1.05382 7.58597 -33.7469  255 255 255
3.20541 7.30883 -32.4152  255 255 255
1.25424 7.41209 -33.7684  255 255 255
3.29252 7.29562 -32.1748  255 255 255
-0.314231 7.49246 -33.4385  255 255 255
3.29047 7.27873 -32.2106  255 255 255
3.30168 7.27596 -32.1591  255 255 255
3.34719 7.28154 -32.0828  255 255 255
3.24744 7.27664 -32.3352  255 255 255
3.20856 7.25098 -32.4169  255 255 255
3.2042 7.256 -32.4168  255 255 255
3.25785 7.24858 -32.3029  255 255 255
1.42156 7.26468 -34.2172  255 255 255
3.15244 7.23893 -32.5762  255 255 255
1.26192 7.32065 -33.5947  255 255 255
3.3374 7.21268 -32.1267  255 255 255
3.34627 7.20641 -32.0995  255 255 255
0.366957 7.34347 -33.5343  255 255 255
0.410949 7.33977 -33.3567  255 255 255
3.25369 7.20145 -32.3456  255 255 255
3.22329 7.18112 -32.4267  255 255 255
1.88864 7.2457 -32.2583  255 255 255
0.53357 7.27661 -33.177  255 255 255
0.53357 7.27661 -33.177  255 255 255
3.25138 7.13233 -32.4206  255 255 255
1.83013 7.20736 -32.237  255 255 255
3.33842 7.08697 -31.9509  255 255 255
3.38951 7.07709 -32.0844  255 255 255
3.39577 7.07162 -32.0933  255 255 255
3.39577 7.07162 -32.0933  255 255 255
2.18499 7.15498 -31.8874  255 255 255
3.30875 7.04613 -32.2349  255 255 255
3.26703 7.02984 -32.4772  255 255 255
3.39716 7.04544 -32.1241  255 255 255
3.42229 7.05088 -32.0429  255 255 255
3.38492 7.04322 -32.1401  255 255 255
1.73448 7.15611 -31.8376  255 255 255
-0.791702 7.23354 -32.5677  255 255 255
-0.791702 7.23354 -32.5677  255 255 255
3.41428 7.03743 -32.0781  255 255 255
3.43259 7.03808 -32.0237  255 255 255
0.831602 7.08346 -33.2  255 255 255
3.39128 7.02344 -32.1367  255 255 255
0.629364 7.097 -33.233  255 255 255
3.33519 7.00272 -32.2952  255 255 255
0.814912 7.07248 -33.0359  255 255 255
3.3968 7.00115 -32.147  255 255 255
3.31116 6.99223 -32.354  255 255 255
3.31116 6.99223 -32.354  255 255 255
3.48119 7.01366 -31.9152  255 255 255
3.40692 6.98894 -32.1223  255 255 255
3.4607 6.99967 -31.989  255 255 255
3.47597 6.99715 -31.98  255 255 255
1.53911 7.10143 -31.9431  255 255 255
3.51676 7.00273 -31.8546  255 255 255
3.53629 6.9923 -31.8512  255 255 255
0.647757 7.04523 -32.9956  255 255 255
1.70328 7.09901 -31.8095  255 255 255
3.44164 6.97705 -32.0562  255 255 255
3.32645 6.95115 -32.347  255 255 255
3.46358 6.97898 -32.0107  255 255 255
3.48769 6.9785 -31.9567  255 255 255
3.33979 6.94575 -32.2919  255 255 255
3.3182 6.95153 -32.2543  255 255 255
3.35689 6.95865 -32.2581  255 255 255
3.45507 6.95937 -32.0332  255 255 255
3.43351 6.9516 -32.0843  255 255 255
3.46944 6.95906 -32.0033  255 255 255
1.40397 7.05007 -32.2091  255 255 255
3.43579 6.93851 -32.0599  255 255 255
1.71889 7.07498 -31.7397  255 255 255
3.46307 6.92628 -32.0421  255 255 255
3.51607 6.92928 -31.9215  255 255 255
3.51607 6.92928 -31.9215  255 255 255
3.46006 6.90851 -32.0525  255 255 255
0.625268 6.95531 -33.094  255 255 255
3.49852 6.913 -31.9712  255 255 255
-1.05553 7.0229 -33.0416  255 255 255
1.48264 7.01926 -31.9159  255 255 255
3.49672 6.88375 -31.9923  255 255 255
3.27786 6.84144 -32.3637  255 255 255
3.51901 6.88753 -31.9461  255 255 255
3.46986 6.86032 -32.0544  255 255 255
0.667939 6.9065 -32.9936  255 255 255
2.10474 6.98655 -31.6484  255 255 255
3.50974 6.86512 -31.9707  255 255 255
3.58792 6.86589 -31.8218  255 255 255
1.66577 6.98277 -31.7541  255 255 255
3.44713 6.82689 -32.1407  255 255 255
3.50635 6.83759 -31.9889  255 255 255
3.5308 6.84313 -31.9468  255 255 255
3.41937 6.80446 -32.2285  255 255 255
2.08619 6.95478 -31.6514  255 255 255
1.64333 6.96289 -31.7344  255 255 255
1.95989 6.9595 -31.6404  255 255 255
1.97085 6.9546 -31.6746  255 255 255
3.3331 6.76894 -32.4662  255 255 255
3.55978 6.82449 -31.9013  255 255 255
2.11875 6.94033 -31.622  255 255 255
3.4095 6.76684 -32.3033  255 255 255
3.61038 6.82847 -31.7523  255 255 255
3.17145 6.7228 -32.6696  255 255 255
3.14913 6.74017 -32.6896  255 255 255
3.18629 6.76182 -32.4304  255 255 255
3.43127 6.76999 -32.1697  255 255 255
3.14422 6.70933 -32.8293  255 255 255
2.90742 6.81726 -32.0715  255 255 255
1.34836 6.90227 -32.0313  255 255 255
1.74435 6.93055 -31.6707  255 255 255
3.46402 6.75154 -32.1596  255 255 255
1.15345 6.88798 -32.0434  255 255 255
3.45038 6.73202 -32.189  255 255 255
3.42031 6.71611 -32.2819  255 255 255
3.41701 6.71663 -32.2803  255 255 255
1.33322 6.88051 -31.9721  255 255 255
1.35527 6.86148 -32.0579  255 255 255
1.83157 6.90963 -31.6318  255 255 255
2.15167 6.88147 -31.6865  255 255 255
2.1371 6.88507 -31.6542  255 255 255
0.187449 6.78561 -32.9039  255 255 255
3.47377 6.71561 -32.1648  255 255 255
1.1828 6.85195 -32.0274  255 255 255
3.43834 6.69416 -32.2489  255 255 255
3.6259 6.75759 -31.7748  255 255 255
1.43918 6.85639 -31.9309  255 255 255
3.56932 6.73263 -31.9155  255 255 255
3.56188 6.74146 -31.9083  255 255 255
1.2158 6.82529 -32.1346  255 255 255
3.49419 6.685 -32.1334  255 255 255
3.46179 6.63849 -32.2359  255 255 255
1.34011 6.80442 -31.9886  255 255 255
0.108762 6.72597 -32.6726  255 255 255
3.50318 6.64599 -32.1373  255 255 255
0.439511 6.7027 -32.6827  255 255 255
0.443278 6.70897 -32.6108  255 255 255
3.43599 6.61638 -32.3219  255 255 255
3.39411 6.59434 -32.401  255 255 255
3.47967 6.62289 -32.2147  255 255 255
0.459517 6.6797 -32.7426  255 255 255
0.442934 6.67924 -32.6985  255 255 255
3.45185 6.59265 -32.2874  255 255 255
3.48094 6.60036 -32.2528  255 255 255
1.42339 6.76113 -31.9179  255 255 255
0.23449 6.67527 -32.6384  255 255 255
3.48656 6.58523 -32.2172  255 255 255
3.49124 6.58239 -32.2204  255 255 255
0.380458 6.64682 -32.5735  255 255 255
0.302607 6.65876 -32.4969  255 255 255
3.4399 6.56325 -32.2989  255 255 255
3.43163 6.56745 -32.283  255 255 255
1.44536 6.73647 -31.8976  255 255 255
1.55648 6.76289 -31.7278  255 255 255
3.64002 6.6434 -31.8085  255 255 255
1.70744 6.76219 -31.6404  255 255 255
0.208263 6.62798 -32.631  255 255 255
3.48706 6.53097 -32.282  255 255 255
3.61248 6.59868 -31.8694  255 255 255
3.49337 6.53346 -32.2533  255 255 255
3.48008 6.52816 -32.2377  255 255 255
3.42503 6.50244 -32.3226  255 255 255
1.9743 6.73846 -31.5772  255 255 255
3.45418 6.50719 -32.2594  255 255 255
3.45472 6.49724 -32.2537  255 255 255
0.157023 6.59483 -32.6023  255 255 255
0.28405 6.57266 -32.4916  255 255 255
2.03958 6.70773 -31.6076  255 255 255
2.00883 6.71395 -31.5949  255 255 255
3.43427 6.46285 -32.3201  255 255 255
3.60872 6.50968 -31.9621  255 255 255
3.58653 6.53879 -31.9577  255 255 255
0.398547 6.56611 -32.4288  255 255 255
2.07111 6.67483 -31.6611  255 255 255
2.04919 6.69206 -31.602  255 255 255
3.52252 6.45403 -32.2308  255 255 255
3.49136 6.43422 -32.3111  255 255 255
3.64841 6.53657 -31.8113  255 255 255
3.62559 6.51697 -31.9028  255 255 255
0.35321 6.52833 -32.4796  255 255 255
1.63857 6.66334 -31.6774  255 255 255
1.65072 6.65562 -31.6671  255 255 255
0.411839 6.50582 -32.4135  255 255 255
2.06677 6.63611 -31.611  255 255 255
1.83399 6.64755 -31.6086  255 255 255
1.45828 6.60672 -31.7675  255 255 255
1.57385 6.60599 -31.7129  255 255 255
3.59032 6.37356 -32.1349  255 255 255
3.53199 6.41727 -32.0914  255 255 255
3.48931 6.34688 -32.2557  255 255 255
3.64423 6.43087 -31.8805  255 255 255
2.18262 6.56673 -31.6474  255 255 255
2.15556 6.55929 -31.6409  255 255 255
2.09807 6.56248 -31.6323  255 255 255
3.60352 6.34907 -32.0878  255 255 255
2.06197 6.55467 -31.6158  255 255 255
1.38885 6.57259 -31.6793  255 255 255
1.88509 6.5275 -31.5642  255 255 255
2.27653 6.47493 -31.6518  255 255 255
3.66279 6.33707 -31.8853  255 255 255
3.57758 6.24641 -32.1169  255 255 255
0.455839 6.38258 -32.0709  255 255 255
0.407585 6.32843 -31.9943  255 255 255
0.414877 6.21374 -32.2455  255 255 255
1.37175 6.31114 -31.8067  255 255 255
1.79228 6.39876 -31.5157  255 255 255
1.58991 6.37533 -31.529  255 255 255
1.94316 6.38182 -31.5249  255 255 255
1.35012 6.3186 -31.7539  255 255 255
1.90836 6.38395 -31.5028  255 255 255
0.498571 6.27747 -31.8794  255 255 255
1.84432 6.36899 -31.4915  255 255 255
1.80433 6.35522 -31.4628  255 255 255
1.83513 6.35288 -31.4614  255 255 255
1.68802 6.30537 -31.5657  255 255 255
1.82457 6.33996 -31.46  255 255 255
1.36128 6.21668 -31.7845  255 255 255
1.69605 6.28582 -31.5814  255 255 255
-0.741257 6.09473 -32.107  255 255 255
3.22987 5.97191 -31.9772  255 255 255
3.53908 5.93661 -31.8906  255 255 255
3.45162 5.91474 -31.8762  255 255 255
1.96984 6.02013 -31.7375  255 255 255
3.40875 5.88864 -31.8243  255 255 255
3.34842 5.85542 -31.8142  255 255 255
2.28496 5.92416 -31.6558  255 255 255
3.22111 5.82491 -31.7678  255 255 255
1.06583 5.79812 -31.678  255 255 255
1.18964 5.80558 -31.6551  255 255 255
3.28092 5.67546 -31.5871  255 255 255
2.91679 5.64566 -31.6318  255 255 255
2.67873 5.66882 -31.6026  255 255 255
1.87703 5.66682 -31.5279  255 255 255
1.85515 5.62605 -31.5572  255 255 255
1.37262 5.66623 -31.537  255 255 255
2.60106 5.58753 -31.5082  255 255 255
1.59663 5.62908 -31.5213  255 255 255
0.864105 5.65205 -31.5709  255 255 255
3.15677 5.58941 -31.4681  255 255 255
2.64312 5.57196 -31.518  255 255 255
1.69171 5.61781 -31.4561  255 255 255
1.71885 5.60739 -31.4633  255 255 255
1.57722 5.59714 -31.4851  255 255 255
1.74794 5.6016 -31.4875  255 255 255
1.84067 5.61518 -31.4455  255 255 255
2.82544 5.55635 -31.4518  255 255 255
1.64929 5.64187 -31.4367  255 255 255
1.66709 5.56617 -31.4531  255 255 255
1.10122 8.61497 -33.7076  255 255 255
1.89959 8.66861 -34.1163  255 255 255
0.0053211 8.5457 -33.1607  255 255 255
2.68321 8.67307 -34.3141  255 255 255
-0.0270894 8.53746 -33.1523  255 255 255
0.157796 8.54493 -33.2463  255 255 255
0.156207 8.54494 -33.2575  255 255 255
0.768423 8.5783 -33.5891  255 255 255
3.1116 8.28588 -32.8149  255 255 255
0.454561 8.55443 -33.4226  255 255 255
0.462755 8.54748 -33.3978  255 255 255
1.65162 8.60972 -33.9507  255 255 255
3.03299 8.63679 -34.4231  255 255 255
3.2363 8.18481 -32.5587  255 255 255
2.1188 8.59631 -34.1402  255 255 255
3.14475 8.25787 -32.8586  255 255 255
3.17166 8.22714 -32.7443  255 255 255
-0.0064582 8.48435 -33.1854  255 255 255
2.37845 8.5968 -34.2556  255 255 255
2.81835 8.59179 -34.3536  255 255 255
1.73155 8.53527 -34.0011  255 255 255
3.20642 8.15563 -32.6219  255 255 255
3.27559 8.13751 -32.5752  255 255 255
-0.602277 8.44715 -33.0799  255 255 255
3.27015 8.54724 -34.5561  255 255 255
2.46077 8.51281 -34.3229  255 255 255
-0.886129 8.50534 -33.3523  255 255 255
2.91099 8.48792 -34.3778  255 255 255
3.23652 7.99435 -32.0367  255 255 255
2.44857 8.48983 -34.3243  255 255 255
1.85174 8.41216 -34.1403  255 255 255
-0.443766 8.27491 -32.936  255 255 255
-0.443766 8.27491 -32.936  255 255 255
1.07666 8.30911 -33.8606  255 255 255
3.13215 8.05336 -32.9861  255 255 255
3.12822 8.05801 -32.9949  255 255 255
3.18604 7.89061 -32.1202  255 255 255
3.15795 7.9889 -32.9235  255 255 255
3.27532 7.9197 -32.6477  255 255 255
3.18949 7.93399 -32.8397  255 255 255
-0.323655 8.18457 -33.1618  255 255 255
3.26448 7.80877 -32.023  255 255 255
1.283 8.19111 -34.0712  255 255 255
-0.432856 8.13224 -33.0314  255 255 255
-0.215236 8.14671 -33.2387  255 255 255
3.45741 7.71406 -31.6525  255 255 255
3.47383 7.69492 -31.6256  255 255 255
3.33362 7.72069 -31.9418  255 255 255
3.27326 7.68783 -32.0454  255 255 255
3.27101 7.68914 -32.0428  255 255 255
3.3157 7.67899 -31.9633  255 255 255
3.31878 7.68062 -31.9725  255 255 255
0.631617 7.97293 -33.6353  255 255 255
3.30505 7.65454 -31.9978  255 255 255
3.23805 7.66791 -32.1451  255 255 255
3.21962 7.67177 -32.1909  255 255 255
3.21962 7.67177 -32.1909  255 255 255
3.27252 7.63474 -32.0948  255 255 255
3.42674 7.59078 -31.7909  255 255 255
-0.0789729 7.89416 -33.1026  255 255 255
3.41709 7.56014 -31.8332  255 255 255
3.30188 7.57251 -32.0661  255 255 255
-0.234436 7.86159 -33.3074  255 255 255
3.24236 7.60263 -32.8972  255 255 255
3.41988 7.5147 -31.8278  255 255 255
3.51052 7.50302 -31.7104  255 255 255
3.51052 7.50302 -31.7104  255 255 255
3.21654 7.59822 -32.9957  255 255 255
3.27722 7.52649 -32.0954  255 255 255
3.28259 7.52527 -32.0913  255 255 255
1.74372 7.76243 -34.3299  255 255 255
3.47646 7.48001 -31.7813  255 255 255
3.19912 7.51032 -32.2892  255 255 255
1.75622 7.69967 -34.1882  255 255 255
3.09003 7.5596 -33.2136  255 255 255
3.27977 7.47389 -32.137  255 255 255
3.37175 7.44557 -31.9402  255 255 255
3.27022 7.4386 -32.1518  255 255 255
3.277 7.44313 -32.156  255 255 255
3.19844 7.444 -32.3353  255 255 255
3.33234 7.4321 -32.2062  255 255 255
3.25094 7.43077 -32.3837  255 255 255
0.18187 7.63076 -33.7981  255 255 255
3.3406 7.39339 -32.0295  255 255 255
1.05872 7.57983 -33.9387  255 255 255
1.78419 7.4705 -33.856  255 255 255
3.23281 7.34458 -32.3042  255 255 255
3.28492 7.33806 -32.1975  255 255 255
0.0750162 7.5296 -33.6569  255 255 255
0.0802908 7.51131 -33.8291  255 255 255
1.33762 7.37456 -33.7627  255 255 255
3.3788 7.24859 -32.0149  255 255 255
1.31424 7.33672 -33.674  255 255 255
3.27349 7.23086 -32.2717  255 255 255
3.38955 7.21585 -32.0373  255 255 255
3.49667 7.21865 -32.0086  255 255 255
3.37063 7.17497 -32.0844  255 255 255
-0.309752 7.33078 -33.4686  255 255 255
3.52011 7.17416 -31.9068  255 255 255
1.85941 7.23367 -32.2316  255 255 255
0.605051 7.23167 -33.3502  255 255 255
0.678117 7.22186 -33.3725  255 255 255
3.38007 7.07308 -32.1252  255 255 255
3.51485 7.04262 -31.8592  255 255 255
3.38346 7.02117 -32.1664  255 255 255
3.38346 7.02117 -32.1664  255 255 255
3.47725 7.023 -31.9472  255 255 255
3.53818 7.01425 -31.8347  255 255 255
3.42114 6.99386 -32.0757  255 255 255
3.44236 7.01395 -32.0404  255 255 255
3.50348 6.96191 -31.9337  255 255 255
3.62979 6.96219 -31.7785  255 255 255
3.56168 6.96059 -31.8178  255 255 255
0.0620913 7.03163 -32.9046  255 255 255
3.20621 6.87045 -32.5979  255 255 255
3.47685 6.9072 -32.0194  255 255 255
3.58268 6.92982 -31.8578  255 255 255
3.58268 6.92982 -31.8578  255 255 255
3.43014 6.87333 -32.1329  255 255 255
3.50373 6.88501 -31.9762  255 255 255
3.50373 6.88501 -31.9762  255 255 255
3.54433 6.88497 -31.8821  255 255 255
3.6087 6.87635 -31.7509  255 255 255
0.177359 6.88823 -32.8976  255 255 255
0.327622 6.86441 -32.901  255 255 255
3.16073 6.76938 -32.4925  255 255 255
3.15717 6.76821 -32.5028  255 255 255
0.0762884 6.87172 -32.9206  255 255 255
0.0838007 6.87164 -32.9036  255 255 255
0.524081 6.86411 -32.8208  255 255 255
2.99019 6.80263 -32.3007  255 255 255
0.249874 6.84492 -32.8944  255 255 255
0.0835447 6.84655 -32.8782  255 255 255
1.49734 6.91194 -31.837  255 255 255
-1.17507 6.88532 -32.8462  255 255 255
3.37961 6.67889 -32.3922  255 255 255
-0.941841 6.79942 -32.7732  255 255 255
1.59148 6.83058 -31.7151  255 255 255
1.58487 6.80659 -31.7188  255 255 255
1.58511 6.80448 -31.7206  255 255 255
2.09106 6.79938 -31.5964  255 255 255
3.59366 6.64353 -31.911  255 255 255
2.04268 6.79757 -31.6262  255 255 255
0.553584 6.64808 -32.6764  255 255 255
3.62111 6.64338 -31.8282  255 255 255
3.62111 6.64338 -31.8282  255 255 255
