ply
format ascii 1.0
element vertex 1242
property float x
property float y
property float z
property uchar red
property uchar green
property uchar blue
end_header
-2.84777 -1.91471 -22.6448  255 255 255
16.1719 -2.3666 -25.322  255 255 255
16.2941 -2.28984 -24.3538  255 255 255
5.29197 -1.84077 -20.7526  255 255 255
5.50498 -1.84848 -20.7093  255 255 255
-0.349771 -1.9278 -21.501  255 255 255
-0.768036 -1.97563 -21.4456  255 255 255
-0.00286326 -1.99171 -21.3531  255 255 255
14.6699 -3.23196 -30.3059  255 255 255
4.35353 -2.21965 -22.1563  255 255 255
16.1437 -2.78293 -25.7357  255 255 255
18.5968 -3.31403 -30.076  255 255 255
-0.785954 -2.13266 -21.3856  255 255 255
16.2369 -2.75028 -24.4007  255 255 255
19.4267 -3.42369 -29.5557  255 255 255
0.175669 -2.34598 -21.5842  255 255 255
-1.9295 -2.57875 -22.6893  255 255 255
4.82884 -2.47693 -21.7002  255 255 255
3.02184 -2.45069 -21.3407  255 255 255
-1.17885 -2.45762 -20.7492  255 255 255
0.918457 -2.49318 -20.3965  255 255 255
0.922613 -2.50358 -20.472  255 255 255
13.5878 -3.75545 -27.8691  255 255 255
-10.1 -3.58423 -26.8901  255 255 255
-7.09163 -3.50765 -26.4186  255 255 255
3.90383 -2.76743 -21.2998  255 255 255
-6.89653 -3.57224 -26.297  255 255 255
0.112362 -2.93725 -21.457  255 255 255
3.37236 -2.71778 -19.6846  255 255 255
3.37749 -2.72255 -19.7161  255 255 255
-10.1249 -3.84176 -26.7886  255 255 255
-6.82653 -3.75002 -26.3237  255 255 255
-7.11798 -3.74991 -25.9801  255 255 255
1.81214 -2.81381 -19.8923  255 255 255
11.1843 -4.00559 -26.7279  255 255 255
-0.195005 -3.22445 -21.8733  255 255 255
-2.01534 -3.50307 -23.0614  255 255 255
2.25105 -3.41479 -21.489  255 255 255
5.18332 -3.63605 -22.13  255 255 255
-6.36003 -4.32738 -26.0885  255 255 255
-2.05401 -3.90585 -23.7224  255 255 255
12.7133 -4.64275 -27.066  255 255 255
4.3973 -3.79955 -21.686  255 255 255
2.91439 -3.8469 -21.4357  255 255 255
-5.31263 -4.5991 -25.1254  255 255 255
16.4117 -5.52828 -28.6548  255 255 255
2.28597 -4.32322 -21.2327  255 255 255
2.37474 -4.37914 -21.3095  255 255 255
2.37103 -4.37219 -21.2762  255 255 255
2.34246 -4.63997 -22.1688  255 255 255
2.25445 -4.46514 -21.3426  255 255 255
-1.12412 -4.74373 -22.58  255 255 255
3.22909 -4.85359 -22.8833  255 255 255
3.27128 -5.09958 -23.093  255 255 255
0.646621 -5.14149 -23.1328  255 255 255
13.5417 -6.3975 -24.5261  255 255 255
-0.694842 -5.50939 -21.784  255 255 255
8.72259 -6.27039 -23.9011  255 255 255
8.35067 -6.34009 -23.7065  255 255 255
8.46831 -6.4361 -24.0729  255 255 255
8.47062 -6.36462 -23.7897  255 255 255
11.2779 -6.54106 -23.8408  255 255 255
-5.18129 -6.49755 -23.7252  255 255 255
-0.766188 -6.21519 -22.4542  255 255 255
11.1432 -6.84721 -24.0934  255 255 255
7.70879 -6.62387 -23.4605  255 255 255
15.8427 -7.58265 -26.3729  255 255 255
-2.95856 -6.45756 -22.6621  255 255 255
9.65318 -6.75611 -23.2065  255 255 255
8.02718 -6.80756 -23.0651  255 255 255
11.2728 -6.96844 -23.3091  255 255 255
1.04728 -6.55371 -21.9644  255 255 255
16.8401 -8.19536 -26.3385  255 255 255
7.52947 -7.12318 -22.8389  255 255 255
14.535 -7.96173 -25.1576  255 255 255
9.31118 -7.70754 -21.9716  255 255 255
7.34317 -7.73546 -21.9054  255 255 255
-3.48886 -7.7366 -22.0237  255 255 255
6.71245 -8.29185 -22.924  255 255 255
1.70256 -8.35294 -22.7257  255 255 255
-5.35829 -7.45334 -19.81  255 255 255
-0.377344 -7.94089 -20.8408  255 255 255
13.2238 -9.1238 -23.4318  255 255 255
-0.157681 -8.24137 -21.4786  255 255 255
-1.60608 -8.20884 -21.252  255 255 255
-0.044276 -8.6849 -22.2918  255 255 255
-14.3033 -8.87147 -22.1181  255 255 255
8.05844 -8.36389 -20.8991  255 255 255
-0.688146 -8.32897 -21.0513  255 255 255
9.72932 -8.87438 -21.8046  255 255 255
-0.72714 -8.41174 -20.9129  255 255 255
1.10608 -8.43727 -20.2209  255 255 255
6.09696 -8.69451 -20.6926  255 255 255
-5.2395 -8.67893 -20.7207  255 255 255
0.39059 -8.59 -20.5664  255 255 255
0.377622 -8.43497 -20.1685  255 255 255
13.3242 14.6578 -30.5683  255 255 255
-8.75517 16.2168 -34.9945  255 255 255
-7.25491 17.934 -39.4693  255 255 255
12.5578 20.7409 -46.4313  255 255 255
-11.8687 15.513 -33.3297  255 255 255
-11.8687 15.513 -33.3297  255 255 255
2.38199 18.4682 -41.2222  255 255 255
13.9522 14.8251 -31.5625  255 255 255
13.0097 24.3603 -56.4895  255 255 255
-15.7668 15.7494 -34.1013  255 255 255
-15.988 15.9646 -34.6429  255 255 255
-10.8002 15.5466 -34.1273  255 255 255
-4.99953 16.6475 -37.4204  255 255 255
0.0240214 20.0392 -46.3487  255 255 255
8.51637 22.461 -52.574  255 255 255
8.51637 22.461 -52.574  255 255 255
-12.695 15.0614 -33.1106  255 255 255
13.9691 20.5544 -47.5406  255 255 255
-9.50524 15.61 -34.9789  255 255 255
17.9634 24.4472 -57.8768  255 255 255
13.1955 14.1503 -31.1673  255 255 255
-12.5001 16.0652 -36.5425  255 255 255
-15.3212 15.5103 -34.978  255 255 255
10.2662 23.2169 -56.0849  255 255 255
12.648 14.7104 -33.0773  255 255 255
7.57483 21.5475 -51.7149  255 255 255
13.7889 13.6066 -30.1121  255 255 255
-9.33005 16.5657 -38.5949  255 255 255
-8.71934 15.4911 -35.7509  255 255 255
6.42758 18.4188 -44.1898  255 255 255
-11.8862 14.7598 -33.9625  255 255 255
-3.58026 16.3644 -38.7707  255 255 255
-3.58026 16.3644 -38.7707  255 255 255
12.6793 11.3697 -24.6488  255 255 255
12.5155 11.7384 -25.8087  255 255 255
10.112 23.3769 -57.9069  255 255 255
12.9849 11.3978 -24.9355  255 255 255
8.77265 21.6565 -53.7107  255 255 255
-9.07499 15.0242 -35.8759  255 255 255
-9.87666 16.3356 -39.4775  255 255 255
-11.6988 14.471 -34.3683  255 255 255
-8.67446 14.9956 -36.1808  255 255 255
-8.67446 14.9956 -36.1808  255 255 255
-11.9037 14.39 -34.2729  255 255 255
-6.28585 15.4113 -37.6329  255 255 255
0.325485 18.9718 -48.421  255 255 255
13.6734 10.441 -23.4348  255 255 255
-9.12285 14.6786 -36.1299  255 255 255
19.3381 23.3573 -60.6345  255 255 255
-0.4811 16.255 -41.0802  255 255 255
12.9971 13.2796 -32.1286  255 255 255
13.2115 10.8365 -24.9709  255 255 255
13.5222 10.6232 -24.3382  255 255 255
2.97762 16.8568 -43.0642  255 255 255
25.7261 30.1095 -81.2823  255 255 255
-26.7727 19.9668 -51.3121  255 255 255
0.633149 16.217 -41.9031  255 255 255
13.7077 10.4046 -24.1791  255 255 255
-28.5406 20.9719 -54.7598  255 255 255
12.805 10.8797 -25.8963  255 255 255
0.14238 18.5213 -49.4608  255 255 255
0.0446365 15.9116 -41.5776  255 255 255
-2.46338 17.6266 -47.0371  255 255 255
3.26949 16.3563 -43.2369  255 255 255
13.9243 9.47582 -22.0005  255 255 255
-8.80897 14.2803 -36.8913  255 255 255
-1.34432 15.5797 -41.1462  255 255 255
-1.34432 15.5797 -41.1462  255 255 255
7.20816 19.8671 -54.0334  255 255 255
12.9261 13.7009 -35.0123  255 255 255
12.4368 13.2218 -33.5911  255 255 255
13.1827 10.4742 -25.1714  255 255 255
13.2442 13.3737 -34.2561  255 255 255
13.2442 13.3737 -34.2561  255 255 255
-3.36851 15.0904 -40.0124  255 255 255
-2.32485 17.4271 -47.3219  255 255 255
14.1856 9.77788 -23.2714  255 255 255
-16.5666 14.7925 -38.6628  255 255 255
7.65883 17.0296 -46.3154  255 255 255
-10.0222 13.8025 -36.2386  255 255 255
-10.0222 13.8025 -36.2386  255 255 255
7.55484 19.6883 -54.6153  255 255 255
-0.10497 17.8626 -49.188  255 255 255
-3.24959 14.9172 -40.2689  255 255 255
-12.5449 14.5075 -38.6296  255 255 255
-5.79973 14.4083 -38.7541  255 255 255
-3.51657 14.8056 -40.1576  255 255 255
-3.51657 14.8056 -40.1576  255 255 255
-3.93899 16.7 -46.0637  255 255 255
-14.5114 13.282 -34.8755  255 255 255
-3.08523 14.7647 -40.6004  255 255 255
0.00572267 15.2953 -42.3302  255 255 255
-7.60671 15.554 -43.1168  255 255 255
-16.0975 14.6468 -39.7748  255 255 255
13.9472 9.319 -22.8988  255 255 255
12.3417 12.7026 -33.9638  255 255 255
-2.15246 16.2439 -46.165  255 255 255
-0.00758738 15.0408 -42.5951  255 255 255
14.3433 9.33378 -23.3893  255 255 255
14.7744 9.02568 -22.4657  255 255 255
14.8956 8.82457 -21.8154  255 255 255
-29.8864 20.409 -58.7699  255 255 255
12.4595 12.4121 -34.0684  255 255 255
12.4595 12.4121 -34.0684  255 255 255
12.7888 12.2078 -33.3964  255 255 255
-0.441695 14.7554 -42.4582  255 255 255
-0.0373317 14.8229 -42.6735  255 255 255
-10.2255 14.569 -42.1565  255 255 255
-7.03988 15.3103 -44.7827  255 255 255
-7.15293 15.09 -44.7293  255 255 255
-6.96503 13.3419 -38.8834  255 255 255
-9.20343 12.8063 -37.7058  255 255 255
-12.7689 13.4729 -40.0928  255 255 255
-6.97114 13.07 -39.1532  255 255 255
-12.2818 12.1501 -35.7391  255 255 255
-8.46698 14.493 -44.2583  255 255 255
-3.86729 13.5589 -41.0818  255 255 255
-11.2109 12.3124 -36.6564  255 255 255
-11.2109 12.3124 -36.6564  255 255 255
-7.28258 12.882 -38.8645  255 255 255
-7.28258 12.882 -38.8645  255 255 255
-10.2698 12.4481 -37.2809  255 255 255
13.171 9.31269 -26.1393  255 255 255
-8.67012 12.4945 -38.112  255 255 255
-8.27858 13.8762 -44.083  255 255 255
12.5492 9.42258 -27.479  255 255 255
12.4671 9.41544 -27.6046  255 255 255
-3.52012 13.0073 -41.77  255 255 255
-9.20875 12.0579 -38.3638  255 255 255
-9.20875 12.0579 -38.3638  255 255 255
-9.29164 11.9289 -38.4848  255 255 255
-9.29164 11.9289 -38.4848  255 255 255
0.171902 13.317 -44.2375  255 255 255
0.171902 13.317 -44.2375  255 255 255
-16.9436 12.4993 -40.3424  255 255 255
-10.6853 13.1596 -43.4564  255 255 255
13.1015 10.6128 -33.7372  255 255 255
-14.8029 12.1452 -39.7046  255 255 255
-14.749 12.1028 -39.5431  255 255 255
13.2741 10.2556 -33.2652  255 255 255
-6.8808 11.8412 -40.3949  255 255 255
13.143 9.93285 -32.4026  255 255 255
13.3834 8.36013 -26.3443  255 255 255
13.7807 10.0952 -33.5693  255 255 255
13.4227 10.0617 -33.5657  255 255 255
-14.3644 11.8007 -40.9287  255 255 255
12.5757 10.3868 -35.3333  255 255 255
15.047 7.45012 -23.0615  255 255 255
-29.7087 16.0158 -57.4868  255 255 255
13.4932 9.80109 -33.3435  255 255 255
13.4932 9.80109 -33.3435  255 255 255
13.3093 8.17611 -26.5481  255 255 255
-17.2301 11.3276 -40.0617  255 255 255
-17.2684 11.3516 -40.161  255 255 255
-13.1626 11.6774 -42.0269  255 255 255
-10.6593 10.7871 -38.4336  255 255 255
14.1178 7.36368 -23.5254  255 255 255
-17.1839 11.3892 -40.7312  255 255 255
14.286 6.97861 -22.2669  255 255 255
14.9475 7.25935 -23.4308  255 255 255
15.246 7.11217 -22.8346  255 255 255
13.2726 13.2895 -51.5351  255 255 255
-11.7306 11.5719 -44.3856  255 255 255
-5.78143 10.805 -42.09  255 255 255
-17.1735 10.7039 -41.0854  255 255 255
-15.9402 10.818 -41.849  255 255 255
-14.362 10.4496 -40.9226  255 255 255
-14.4618 10.7328 -42.2106  255 255 255
-26.1823 12.9958 -52.4456  255 255 255
12.8269 7.51798 -28.0902  255 255 255
12.8269 7.51798 -28.0902  255 255 255
13.1185 7.05917 -25.9159  255 255 255
14.5936 6.75982 -24.5081  255 255 255
12.8731 7.39647 -28.1371  255 255 255
14.9671 6.80781 -24.9852  255 255 255
0.640257 11.6114 -49.6818  255 255 255
15.3921 6.35245 -23.0095  255 255 255
15.4789 6.33925 -22.9564  255 255 255
2.47647 11.0985 -48.6676  255 255 255
13.8446 6.83876 -26.2687  255 255 255
1.86361 11.1413 -49.0668  255 255 255
12.7271 7.20081 -28.5439  255 255 255
-17.7759 9.70265 -41.7034  255 255 255
2.0434 9.419 -41.604  255 255 255
-8.80464 10.4807 -47.0098  255 255 255
12.5523 7.09073 -29.0468  255 255 255
2.21373 10.2722 -46.8981  255 255 255
2.58485 10.557 -48.3327  255 255 255
2.53022 10.3781 -47.3821  255 255 255
14.5728 6.29886 -24.9114  255 255 255
-7.25644 10.171 -46.3574  255 255 255
-0.644352 10.219 -47.3618  255 255 255
-0.645276 10.2539 -47.55  255 255 255
2.71598 10.1807 -47.1642  255 255 255
-1.38229 10.0665 -46.6617  255 255 255
-24.022 10.4741 -47.9533  255 255 255
-16.468 9.08957 -41.397  255 255 255
9.82614 9.72796 -46.408  255 255 255
-6.65159 9.68079 -46.6428  255 255 255
-17.0038 8.63238 -40.8199  255 255 255
-23.3772 9.73874 -46.8262  255 255 255
14.5942 5.26993 -21.6358  255 255 255
-16.773 8.5151 -40.7023  255 255 255
13.069 6.09179 -26.9363  255 255 255
15.6951 5.41597 -22.9481  255 255 255
-0.697617 9.02125 -45.4702  255 255 255
7.6235 9.32517 -47.3689  255 255 255
-17.6015 8.47706 -42.2459  255 255 255
15.4953 5.30342 -23.4749  255 255 255
15.6091 5.27184 -23.2536  255 255 255
-2.74951 8.63259 -45.19  255 255 255
15.5336 5.27218 -23.3498  255 255 255
14.8856 5.08479 -22.252  255 255 255
15.5207 5.18261 -23.4333  255 255 255
14.703 4.91146 -21.6906  255 255 255
15.6033 5.11451 -23.4615  255 255 255
15.6033 5.11451 -23.4615  255 255 255
-10.6839 7.66856 -41.3122  255 255 255
12.9875 6.15203 -32.1622  255 255 255
12.856 5.60147 -28.2171  255 255 255
14.3841 5.31233 -26.171  255 255 255
15.4388 4.95364 -23.7679  255 255 255
15.5427 4.88901 -23.5912  255 255 255
-0.840779 7.34806 -43.3434  255 255 255
12.7886 5.29618 -28.6079  255 255 255
13.0979 5.26314 -29.1212  255 255 255
16.2011 5.26052 -29.6575  255 255 255
13.0971 5.05348 -29.2283  255 255 255
-2.05984 6.5809 -42.056  255 255 255
14.5268 4.66128 -26.1802  255 255 255
14.5268 4.66128 -26.1802  255 255 255
1.15754 4.14588 -23.4541  255 255 255
14.5844 4.05957 -22.5442  255 255 255
15.5187 4.26369 -24.1709  255 255 255
-9.72394 6.00375 -39.4157  255 255 255
13.6991 4.46064 -26.2439  255 255 255
13.7005 4.461 -26.2467  255 255 255
-7.43677 5.84709 -39.7825  255 255 255
14.4868 4.32524 -26.2238  255 255 255
-3.26831 5.47429 -37.2062  255 255 255
-14.6088 5.1695 -34.1404  255 255 255
-8.27683 5.71919 -39.8978  255 255 255
13.1422 4.63445 -29.6175  255 255 255
-7.55519 5.59515 -40.0823  255 255 255
-6.69261 5.41111 -39.3704  255 255 255
-7.96016 5.29246 -38.8438  255 255 255
15.1428 3.72017 -23.3594  255 255 255
13.597 4.15404 -28.7732  255 255 255
-24.6621 5.31466 -39.3219  255 255 255
-0.943444 3.40706 -22.9772  255 255 255
14.1228 3.91356 -27.8023  255 255 255
-4.7806 4.89397 -38.7945  255 255 255
14.3815 3.82791 -27.176  255 255 255
14.117 3.7723 -26.625  255 255 255
-13.0379 4.84491 -37.981  255 255 255
-8.75839 4.73882 -37.57  255 255 255
14.4465 3.74852 -27.0996  255 255 255
14.0851 3.54226 -25.3177  255 255 255
14.6897 3.65985 -26.5253  255 255 255
14.308 3.3531 -23.8212  255 255 255
13.9791 3.44054 -25.6711  255 255 255
14.3819 3.41707 -25.0517  255 255 255
14.1623 3.34851 -24.9254  255 255 255
-1.69943 3.26906 -25.0038  255 255 255
13.9497 3.29175 -26.345  255 255 255
13.9497 3.29175 -26.345  255 255 255
-1.94401 3.16608 -25.7558  255 255 255
15.7038 3.08948 -24.5816  255 255 255
15.7038 3.08948 -24.5816  255 255 255
15.7038 3.08948 -24.5816  255 255 255
14.0309 3.13901 -25.8568  255 255 255
14.4785 3.20026 -27.3171  255 255 255
15.0854 3.09615 -26.0708  255 255 255
15.0854 3.09615 -26.0708  255 255 255
0.365941 2.57183 -20.3525  255 255 255
13.7266 3.2502 -29.3513  255 255 255
-1.89674 2.87684 -24.7353  255 255 255
13.023 3.29102 -30.423  255 255 255
13.0307 3.29245 -30.4425  255 255 255
14.3188 2.88019 -24.9525  255 255 255
15.2644 2.93558 -25.741  255 255 255
14.7181 2.79218 -23.731  255 255 255
4.42209 2.59645 -22.9801  255 255 255
14.8682 2.70755 -24.8317  255 255 255
14.1748 2.79365 -26.5496  255 255 255
-7.77899 3.37968 -36.2412  255 255 255
15.0101 2.77555 -26.4242  255 255 255
15.0101 2.77555 -26.4242  255 255 255
-7.8374 3.24541 -36.5072  255 255 255
13.3425 3.05339 -33.5104  255 255 255
14.9206 2.62367 -26.6966  255 255 255
15.3238 2.5672 -25.9398  255 255 255
13.086 2.86594 -32.3813  255 255 255
-7.12269 3.02774 -35.833  255 255 255
1.01135 2.13041 -20.2545  255 255 255
14.2915 2.55832 -28.2264  255 255 255
15.0263 2.48757 -26.5477  255 255 255
13.6016 2.88492 -35.1426  255 255 255
14.3778 2.44726 -28.1401  255 255 255
14.3778 2.44726 -28.1401  255 255 255
0.174239 1.83992 -18.8858  255 255 255
-7.58547 2.37736 -33.8162  255 255 255
14.2896 2.14265 -28.5697  255 255 255
15.6291 2.26996 -31.5029  255 255 255
-12.9529 2.40457 -35.478  255 255 255
14.3525 2.02877 -27.0165  255 255 255
1.68401 1.78015 -21.7741  255 255 255
14.5857 1.96598 -28.0918  255 255 255
2.02708 1.66161 -20.2851  255 255 255
15.7961 1.84849 -25.2315  255 255 255
-11.474 2.14516 -33.4471  255 255 255
14.1346 1.93009 -27.8496  255 255 255
14.7968 1.80907 -27.6389  255 255 255
15.8274 1.58256 -25.2606  255 255 255
14.3541 1.65685 -28.9112  255 255 255
15.962 1.52252 -24.8426  255 255 255
15.0395 1.5591 -27.1946  255 255 255
14.2672 1.55011 -29.1372  255 255 255
13.2253 1.61032 -35.5048  255 255 255
15.191 1.38687 -26.9825  255 255 255
15.191 1.38687 -26.9825  255 255 255
-20.7492 1.55373 -34.3108  255 255 255
-7.94403 1.51253 -33.6054  255 255 255
-1.39467 1.2448 -21.2337  255 255 255
3.25295 1.22685 -21.4621  255 255 255
14.7764 1.26968 -28.0756  255 255 255
15.9558 1.23153 -25.1695  255 255 255
14.88 1.22066 -26.2645  255 255 255
11.7175 1.27975 -34.4755  255 255 255
13.1639 1.18787 -32.4425  255 255 255
14.2413 1.16642 -32.2082  255 255 255
14.7235 1.12035 -28.2809  255 255 255
14.7235 1.12035 -28.2809  255 255 255
4.19921 1.05613 -20.7737  255 255 255
15.2571 1.08139 -27.0608  255 255 255
-9.0483 1.1298 -33.2455  255 255 255
14.4526 1.05525 -26.8348  255 255 255
-10.1613 1.10747 -32.3791  255 255 255
-10.5319 1.04414 -32.3228  255 255 255
-1.88764 0.967725 -22.512  255 255 255
-8.60871 1.0083 -33.0189  255 255 255
4.52444 0.93121 -21.1149  255 255 255
14.8702 0.949195 -28.1289  255 255 255
14.8702 0.949195 -28.1289  255 255 255
16.1904 0.945224 -24.9085  255 255 255
16.1904 0.945224 -24.9085  255 255 255
14.1926 0.945169 -29.7027  255 255 255
14.1926 0.945169 -29.7027  255 255 255
15.5989 0.941167 -27.7135  255 255 255
14.7657 0.933687 -26.0859  255 255 255
14.7434 0.933487 -26.0424  255 255 255
-10.3829 0.954157 -32.2265  255 255 255
12.8092 0.935041 -34.4466  255 255 255
-10.8498 0.891546 -33.1697  255 255 255
14.2018 0.858181 -29.214  255 255 255
14.0466 0.857537 -28.866  255 255 255
-11.872 0.8608 -33.4404  255 255 255
15.5419 0.825806 -23.776  255 255 255
-10.2071 0.78625 -33.0472  255 255 255
13.8972 0.700668 -33.2391  255 255 255
-8.50087 0.602072 -32.4294  255 255 255
14.1704 0.581458 -30.1353  255 255 255
15.5821 0.59094 -22.9626  255 255 255
-8.5576 0.501597 -32.2723  255 255 255
14.3254 0.393257 -32.1443  255 255 255
14.6687 0.38383 -32.976  255 255 255
15.1003 0.416398 -27.9221  255 255 255
15.3754 0.421013 -27.2698  255 255 255
14.219 0.380697 -30.5943  255 255 255
-12.4173 0.365325 -32.5062  255 255 255
14.8295 0.332638 -28.7163  255 255 255
15.1238 0.175028 -28.0454  255 255 255
15.1238 0.175028 -28.0454  255 255 255
15.1238 0.175028 -28.0454  255 255 255
14.6256 0.142384 -29.291  255 255 255
2.80754 0.315248 -21.2145  255 255 255
6.25869 0.169176 -24.8164  255 255 255
4.37202 0.184528 -21.6574  255 255 255
-9.17853 -0.117312 -31.9315  255 255 255
-8.9923 -0.0937371 -31.1693  255 255 255
-1.21006 0.0956924 -24.0451  255 255 255
-10.4518 -0.114884 -31.1063  255 255 255
-3.596 0.0164432 -23.9255  255 255 255
-1.517 -0.00428545 -23.5644  255 255 255
2.91112 0.0952891 -19.8398  255 255 255
-9.93008 -0.223323 -29.9736  255 255 255
-8.92109 -0.229171 -30.974  255 255 255
15.4949 -0.270733 -28.5724  255 255 255
15.2415 -0.250757 -28.0641  255 255 255
-10.5988 -0.302544 -30.9328  255 255 255
4.66964 -0.212451 -22.6135  255 255 255
-8.17039 -0.595211 -30.6545  255 255 255
15.8514 -0.51352 -26.666  255 255 255
-8.03092 -0.604407 -30.6469  255 255 255
-3.44308 -0.299749 -22.9084  255 255 255
-3.49972 -0.352012 -23.5373  255 255 255
1.58881 -0.210308 -20.2518  255 255 255
1.56836 -0.199921 -20.0068  255 255 255
16.0926 -0.725424 -31.2435  255 255 255
14.7585 -0.735504 -29.4571  255 255 255
16.2687 -0.648355 -25.921  255 255 255
-11.2825 -1.07775 -30.6698  255 255 255
15.0707 -1.15741 -29.2166  255 255 255
-9.4259 -1.48861 -29.703  255 255 255
4.57017 -0.932674 -20.84  255 255 255
12.0713 -1.7638 -30.8394  255 255 255
15.9203 -1.60857 -27.4682  255 255 255
-0.895806 -1.21766 -22.1166  255 255 255
-9.39772 -1.73393 -27.7205  255 255 255
15.1631 -2.03458 -29.6499  255 255 255
-9.02788 -1.84147 -28.1223  255 255 255
15.761 -2.00169 -26.037  255 255 255
15.6172 -1.97678 -25.7739  255 255 255
1.73424 -1.43379 -20.4606  255 255 255
3.05619 -1.59055 -21.5634  255 255 255
2.094 -1.50953 -20.6088  255 255 255
-3.7747 -2.00112 -25.1118  255 255 255
0.587975 -1.6653 -21.6085  255 255 255
4.49137 -1.73923 -22.2029  255 255 255
16.137 -2.15637 -25.3413  255 255 255
2.40895 -1.70922 -21.2163  255 255 255
17.8745 -2.77702 -30.2563  255 255 255
16.3453 -2.15187 -24.1858  255 255 255
15.6301 -2.79771 -29.0483  255 255 255
-0.693421 -1.88799 -21.6219  255 255 255
-9.61137 -2.76287 -28.3186  255 255 255
-0.660593 -2.06622 -21.4806  255 255 255
16.2487 -2.65708 -25.3196  255 255 255
3.81989 -2.06223 -20.5005  255 255 255
-9.50092 -2.82213 -26.045  255 255 255
-1.1986 -2.33083 -21.5812  255 255 255
-2.90319 -2.68104 -23.8305  255 255 255
-0.616349 -2.40086 -21.0884  255 255 255
4.42041 -2.32376 -20.2088  255 255 255
-1.1973 -2.38225 -20.7702  255 255 255
-1.19943 -2.39068 -20.8347  255 255 255
16.2127 -3.0647 -24.8049  255 255 255
-9.05198 -3.09037 -25.2319  255 255 255
4.15089 -2.39707 -20.1519  255 255 255
16.3534 -3.61428 -27.9769  255 255 255
16.3144 -3.34708 -24.7907  255 255 255
-0.28017 -2.81959 -21.0108  255 255 255
2.31874 -2.86486 -20.8003  255 255 255
3.19373 -2.76792 -19.7883  255 255 255
2.134 -3.14082 -21.2566  255 255 255
4.177 -3.68665 -21.5007  255 255 255
-0.67603 -3.88083 -22.1548  255 255 255
0.436629 -4.24822 -22.4984  255 255 255
4.70432 -4.3765 -22.4384  255 255 255
5.24058 -4.59766 -22.6488  255 255 255
5.6909 -4.89422 -22.5678  255 255 255
14.9156 -6.41862 -26.8398  255 255 255
6.50446 -5.81986 -23.6892  255 255 255
6.75351 -6.06112 -24.6624  255 255 255
0.570157 -5.80274 -21.3529  255 255 255
8.16768 -6.73977 -23.6718  255 255 255
7.73208 -6.78606 -23.24  255 255 255
14.955 -7.75739 -25.606  255 255 255
-5.20568 -6.91213 -23.1727  255 255 255
13.8942 -8.08842 -24.6052  255 255 255
-4.65438 -7.38492 -22.3627  255 255 255
13.5192 -8.41161 -24.2303  255 255 255
-2.53846 -7.75821 -21.8666  255 255 255
-2.55009 -7.80462 -22.0043  255 255 255
-3.67687 -7.82372 -21.7865  255 255 255
6.64089 -7.92177 -21.6473  255 255 255
-1.92217 -8.13853 -21.5634  255 255 255
-1.33723 -8.19933 -21.456  255 255 255
-5.30166 -7.61273 -19.5183  255 255 255
2.1546 -8.67918 -22.4013  255 255 255
-0.237846 -8.63521 -22.2155  255 255 255
-1.74614 -8.28233 -21.0847  255 255 255
2.26237 -8.39886 -21.1716  255 255 255
0.366842 -8.79266 -22.1876  255 255 255
0.878551 -8.804 -22.1913  255 255 255
-0.635692 -8.46813 -21.2002  255 255 255
1.51571 -8.88962 -22.0907  255 255 255
14.1376 -9.66065 -23.4336  255 255 255
8.30659 -8.89491 -21.1662  255 255 255
13.1322 14.7489 -30.9125  255 255 255
-13.0305 15.3513 -32.5827  255 255 255
8.3933 19.8558 -44.3835  255 255 255
19.3019 25.8909 -59.1775  255 255 255
19.7966 26.1523 -59.7511  255 255 255
5.85618 19.071 -43.1284  255 255 255
8.12913 19.5476 -44.327  255 255 255
-27.0131 21.9288 -49.547  255 255 255
-10.3834 17.0563 -38.006  255 255 255
13.6949 14.0632 -30.1052  255 255 255
13.6135 13.9875 -29.9117  255 255 255
-16.0559 15.8011 -34.416  255 255 255
-4.49965 16.7549 -37.6298  255 255 255
-4.49965 16.7549 -37.6298  255 255 255
12.7615 20.3689 -46.7241  255 255 255
-5.31207 18.3759 -42.0194  255 255 255
-4.8324 16.6768 -37.644  255 255 255
0.316316 17.3777 -40.6581  255 255 255
6.85063 18.7007 -44.1122  255 255 255
6.85063 18.7007 -44.1122  255 255 255
-11.1256 15.0647 -34.3184  255 255 255
7.3376 18.7112 -44.5704  255 255 255
7.12683 18.5964 -44.54  255 255 255
7.12683 18.5964 -44.54  255 255 255
-0.118932 17.0542 -40.6874  255 255 255
9.50935 21.1404 -51.6647  255 255 255
10.7142 24.6923 -61.4849  255 255 255
13.7377 13.4066 -30.3568  255 255 255
13.5858 13.4915 -30.6899  255 255 255
4.56247 21.0436 -52.0553  255 255 255
5.81657 21.3434 -52.8115  255 255 255
-16.5215 15.2822 -35.5485  255 255 255
-16.2968 15.0804 -35.004  255 255 255
-16.59 14.9078 -34.7024  255 255 255
15.6143 19.9951 -49.2018  255 255 255
14.3689 13.8245 -31.993  255 255 255
12.9023 11.2983 -25.4124  255 255 255
12.9023 11.2983 -25.4124  255 255 255
-3.79713 17.7451 -44.5948  255 255 255
12.7674 13.621 -32.4489  255 255 255
8.72569 20.9092 -54.319  255 255 255
12.596 11.2503 -26.0691  255 255 255
12.7795 11.0618 -25.7673  255 255 255
0.0558874 16.1899 -41.4853  255 255 255
0.0558874 16.1899 -41.4853  255 255 255
-17.9183 15.2237 -38.1096  255 255 255
-16.001 14.2979 -35.7113  255 255 255
-0.125605 15.9895 -41.6427  255 255 255
-31.9286 23.1101 -61.2486  255 255 255
-11.3659 13.6218 -35.2796  255 255 255
-23.6697 17.6776 -47.1466  255 255 255
-15.3973 13.9513 -36.2394  255 255 255
-17.3056 13.9978 -36.4191  255 255 255
14.1973 9.68634 -23.4004  255 255 255
12.737 10.5354 -26.2178  255 255 255
13.7343 9.94896 -24.4201  255 255 255
-0.198447 15.2905 -42.1732  255 255 255
12.7415 12.5659 -33.3407  255 255 255
12.7415 12.5659 -33.3407  255 255 255
18.9489 23.3832 -68.0165  255 255 255
-8.17465 15.3569 -42.882  255 255 255
13.5626 8.96588 -22.3347  255 255 255
-4.79809 14.1578 -39.8603  255 255 255
12.9309 12.6334 -34.4295  255 255 255
-7.75525 13.5458 -38.2084  255 255 255
-6.79812 13.6543 -38.7569  255 255 255
-6.33384 15.4878 -44.9571  255 255 255
-11.8976 12.7036 -35.7716  255 255 255
-15.6928 13.4933 -38.2192  255 255 255
-17.0712 12.9667 -36.6142  255 255 255
-7.28711 13.237 -38.7883  255 255 255
12.7225 9.65652 -26.9172  255 255 255
-9.02424 12.6528 -37.9935  255 255 255
13.312 9.16822 -25.5193  255 255 255
-10.7117 12.2701 -37.0664  255 255 255
-7.52963 14.3537 -45.1277  255 255 255
0.220855 13.9057 -43.7328  255 255 255
3.01716 17.1953 -56.2074  255 255 255
-9.50716 12.0644 -38.1383  255 255 255
-31.2398 17.8156 -59.1939  255 255 255
12.9118 8.21912 -24.4062  255 255 255
-29.3537 17.4883 -59.2552  255 255 255
-5.06525 14.3042 -48.7432  255 255 255
11.9738 11.1399 -36.0524  255 255 255
14.9127 11.2423 -36.547  255 255 255
-0.136028 12.67 -44.571  255 255 255
-10.287 12.3285 -44.4492  255 255 255
-9.21971 11.085 -39.261  255 255 255
6.13122 12.3248 -44.9016  255 255 255
7.32916 14.4118 -53.7276  255 255 255
-29.2144 15.2858 -55.8224  255 255 255
-26.9854 15.181 -55.5442  255 255 255
13.4925 10.0242 -34.8876  255 255 255
-11.0086 12.0234 -44.0186  255 255 255
14.6938 7.337 -23.9902  255 255 255
-5.94277 11.1883 -41.7024  255 255 255
-10.9617 11.7267 -43.8977  255 255 255
13.5616 7.38272 -24.7942  255 255 255
16.9077 11.7229 -44.5741  255 255 255
15.1868 10.6363 -39.79  255 255 255
13.0936 7.86396 -27.3888  255 255 255
13.3357 7.7281 -26.8602  255 255 255
-4.24952 11.113 -42.8766  255 255 255
7.26777 12.9593 -51.5015  255 255 255
1.64539 12.7269 -50.7674  255 255 255
12.5441 7.33451 -26.23  255 255 255
-5.59744 10.6639 -42.4616  255 255 255
-17.1145 10.6217 -41.7244  255 255 255
-17.1145 10.6217 -41.7244  255 255 255
-17.7575 10.4244 -41.5631  255 255 255
-13.5895 10.3596 -41.9496  255 255 255
15.253 9.82081 -39.604  255 255 255
-13.0882 10.7656 -44.5476  255 255 255
-9.0615 11.3221 -48.2276  255 255 255
-0.640736 11.3676 -49.142  255 255 255
-0.642601 11.4478 -49.5414  255 255 255
13.9271 6.43581 -23.8452  255 255 255
2.32209 11.3937 -49.6352  255 255 255
-16.1793 9.78478 -41.2338  255 255 255
-18.1205 9.61751 -42.281  255 255 255
-17.2237 9.61329 -42.5524  255 255 255
-17.3527 9.40141 -41.9482  255 255 255
2.04449 10.0291 -46.9053  255 255 255
12.4474 6.83572 -28.9601  255 255 255
7.56722 9.60724 -45.9929  255 255 255
-24.2287 9.99011 -47.4365  255 255 255
7.03309 9.95226 -48.9841  255 255 255
12.8562 6.51157 -28.8482  255 255 255
13.0199 6.36032 -28.0347  255 255 255
12.7393 6.24398 -27.3746  255 255 255
-24.9929 9.77708 -47.057  255 255 255
12.4457 6.26196 -28.6944  255 255 255
-3.23945 8.79371 -45.1568  255 255 255
13.4909 5.99035 -27.399  255 255 255
-17.0196 8.25466 -41.2699  255 255 255
13.3694 5.91237 -27.4433  255 255 255
13.6438 5.91525 -27.3948  255 255 255
13.9384 5.78462 -26.6398  255 255 255
13.0422 6.02173 -28.7116  255 255 255
12.7441 5.98231 -29.5323  255 255 255
12.7441 5.98231 -29.5323  255 255 255
12.8738 5.70299 -27.8087  255 255 255
-1.48815 7.98917 -44.3883  255 255 255
12.1714 5.86508 -30.4041  255 255 255
-3.04506 7.35111 -41.8063  255 255 255
13.942 5.33469 -27.1519  255 255 255
14.0132 5.24703 -26.9379  255 255 255
-11.019 7.42543 -42.7171  255 255 255
-10.6571 7.19966 -41.1419  255 255 255
13.1184 5.47217 -28.9175  255 255 255
12.8194 5.39886 -29.6178  255 255 255
1.38289 4.38964 -24.1206  255 255 255
-9.89169 6.48837 -40.6999  255 255 255
-9.89169 6.48837 -40.6999  255 255 255
12.7948 4.93372 -29.0188  255 255 255
0.933036 4.12851 -23.5496  255 255 255
14.199 4.10781 -26.2366  255 255 255
15.8931 4.46907 -30.0346  255 255 255
14.3942 4.13179 -26.9467  255 255 255
14.3942 4.13179 -26.9467  255 255 255
3.74517 3.66596 -23.7037  255 255 255
13.369 4.08106 -27.6628  255 255 255
12.9273 4.1973 -29.6655  255 255 255
14.15 3.90459 -26.6019  255 255 255
14.6281 3.89802 -26.5363  255 255 255
14.268 3.95591 -27.3209  255 255 255
0.204177 3.17882 -20.6655  255 255 255
-25.3503 5.2684 -40.6838  255 255 255
-25.3503 5.2684 -40.6838  255 255 255
14.5365 3.80882 -26.8116  255 255 255
14.7081 3.77683 -26.3713  255 255 255
-6.56748 4.7521 -37.9845  255 255 255
14.3219 3.79217 -27.326  255 255 255
-8.26496 4.6991 -38.0949  255 255 255
13.8015 3.75715 -28.585  255 255 255
-6.91688 4.56467 -38.2788  255 255 255
13.8108 3.54331 -26.3185  255 255 255
13.5906 3.72646 -29.0885  255 255 255
13.5906 3.72646 -29.0885  255 255 255
14.392 3.27993 -24.0714  255 255 255
14.4283 3.52411 -27.2198  255 255 255
14.4235 3.28547 -25.0528  255 255 255
14.4475 3.25396 -24.7963  255 255 255
-1.14866 2.9844 -22.5593  255 255 255
14.7884 3.16991 -23.8341  255 255 255
15.5431 3.20124 -24.8765  255 255 255
-8.28819 4.11593 -37.1798  255 255 255
-0.00102188 2.7744 -20.7339  255 255 255
14.7497 3.30666 -26.652  255 255 255
13.6403 3.47566 -29.1478  255 255 255
14.9489 3.26901 -26.2625  255 255 255
15.1535 3.20229 -25.7936  255 255 255
13.8328 3.34785 -28.7146  255 255 255
13.8328 3.34785 -28.7146  255 255 255
13.9922 3.29597 -28.2154  255 255 255
14.8623 3.15889 -26.474  255 255 255
14.688 3.17736 -26.9732  255 255 255
14.9962 3.10483 -26.2162  255 255 255
-2.1173 3.03396 -26.3591  255 255 255
14.4003 3.00611 -26.0445  255 255 255
0.119057 2.41229 -19.6486  255 255 255
14.9294 2.89621 -26.5783  255 255 255
15.3927 2.75288 -25.5389  255 255 255
15.3927 2.75288 -25.5389  255 255 255
14.8825 2.77011 -26.6676  255 255 255
-7.81677 3.23059 -34.7194  255 255 255
15.2512 2.68265 -25.9741  255 255 255
-22.7212 3.25054 -37.0208  255 255 255
-1.52152 2.31006 -22.4634  255 255 255
15.2132 2.49035 -26.1929  255 255 255
13.8562 2.67998 -30.602  255 255 255
15.4058 2.44457 -25.7587  255 255 255
14.9915 2.41702 -26.7645  255 255 255
-7.76064 2.76642 -35.4263  255 255 255
3.08988 2.0495 -21.3159  255 255 255
15.3155 2.31015 -25.9993  255 255 255
15.9689 2.13648 -24.6722  255 255 255
-0.236851 1.87291 -19.79  255 255 255
14.767 2.22654 -27.5186  255 255 255
15.29 2.13702 -26.2071  255 255 255
15.4925 2.08195 -25.7864  255 255 255
14.4568 2.13567 -28.1889  255 255 255
2.82398 1.7621 -20.5224  255 255 255
-0.381539 1.66892 -18.6814  255 255 255
1.85584 1.70495 -19.8348  255 255 255
1.80571 1.68474 -19.3145  255 255 255
13.6555 2.09657 -30.0627  255 255 255
15.7095 1.87977 -25.3821  255 255 255
3.00428 1.63036 -20.1544  255 255 255
14.0638 1.88308 -28.2376  255 255 255
15.3146 1.70403 -22.7171  255 255 255
12.7552 2.0421 -33.1954  255 255 255
12.8872 2.05459 -33.5639  255 255 255
14.168 2.08713 -34.4133  255 255 255
14.6491 1.83883 -27.8128  255 255 255
15.1325 2.17267 -41.363  255 255 255
12.8702 1.97232 -34.8227  255 255 255
-2.44893 1.62459 -23.6052  255 255 255
0.242079 1.42787 -18.2935  255 255 255
14.8417 1.63644 -27.6698  255 255 255
-3.91011 1.54326 -24.7855  255 255 255
14.7698 1.53843 -28.0097  255 255 255
14.4649 1.50328 -28.7259  255 255 255
14.4649 1.50328 -28.7259  255 255 255
-2.5802 1.37846 -23.3456  255 255 255
-2.30719 1.35106 -23.0524  255 255 255
1.04337 1.33074 -21.7648  255 255 255
3.16322 1.26503 -20.0881  255 255 255
3.44821 1.30262 -21.98  255 255 255
-11.4608 1.55484 -34.1358  255 255 255
14.4299 1.28414 -26.6807  255 255 255
-3.73554 1.23674 -24.4353  255 255 255
14.6241 1.28382 -28.4438  255 255 255
16.3412 1.20058 -24.4416  255 255 255
-1.72761 1.16515 -21.9671  255 255 255
15.8249 1.19134 -25.6214  255 255 255
15.2437 1.17812 -24.5779  255 255 255
-3.28171 1.15329 -24.1438  255 255 255
15.0747 1.06794 -27.4588  255 255 255
14.7753 0.860641 -28.401  255 255 255
-2.42708 0.852811 -22.7817  255 255 255
-12.0782 0.793291 -32.0358  255 255 255
15.1683 0.754617 -27.5493  255 255 255
-9.34019 0.750707 -32.0518  255 255 255
-9.53804 0.738961 -32.8672  255 255 255
14.5355 0.734943 -29.0602  255 255 255
14.2727 0.654172 -29.8057  255 255 255
14.9336 0.660747 -28.1912  255 255 255
-9.10929 0.620576 -31.8935  255 255 255
-9.26181 0.590823 -31.9419  255 255 255
14.7059 0.514938 -28.8336  255 255 255
14.8473 0.505564 -28.4274  255 255 255
-1.87145 0.484168 -22.8476  255 255 255
-11.2015 0.357895 -32.5287  255 255 255
14.5821 0.34066 -27.3624  255 255 255
15.0123 0.328767 -28.2511  255 255 255
-9.75683 0.256584 -31.5123  255 255 255
-10.5314 0.229617 -31.4541  255 255 255
14.4888 0.218269 -28.3527  255 255 255
14.3368 0.224184 -28.0272  255 255 255
-1.73086 0.282215 -23.1404  255 255 255
-1.00102 0.265567 -22.6952  255 255 255
16.0514 0.187402 -23.9936  255 255 255
0.158162 0.200469 -22.4047  255 255 255
-11.3217 -0.0535279 -32.0769  255 255 255
14.9141 0.00123275 -28.7478  255 255 255
16.2462 0.049549 -25.4062  255 255 255
14.9953 -0.0169118 -28.5338  255 255 255
14.7891 -0.00928714 -28.1003  255 255 255
14.6761 -0.14123 -29.3724  255 255 255
2.1551 0.0640397 -21.556  255 255 255
14.5596 -0.255926 -27.9669  255 255 255
14.675 -0.264049 -28.2097  255 255 255
-11.4248 -0.311023 -30.912  255 255 255
-10.9102 -0.330836 -30.906  255 255 255
2.64514 -0.114319 -21.4144  255 255 255
2.30715 -0.0845145 -20.0917  255 255 255
14.5547 -0.434358 -28.9554  255 255 255
16.1377 -0.500082 -26.2334  255 255 255
18.1046 -0.650194 -29.7785  255 255 255
-9.75997 -0.611247 -30.6055  255 255 255
2.63098 -0.233835 -20.4419  255 255 255
2.78651 -0.282858 -21.6961  255 255 255
15.2538 -0.674864 -28.4289  255 255 255
14.9515 -0.734205 -29.0835  255 255 255
15.7007 -0.465656 -23.5251  255 255 255
16.3157 -0.613121 -25.651  255 255 255
-9.95054 -0.901984 -30.3405  255 255 255
-0.350381 -0.560811 -23.0338  255 255 255
-0.25158 -0.672751 -23.1935  255 255 255
-9.56073 -1.14443 -30.016  255 255 255
2.95976 -0.68984 -21.8826  255 255 255
1.13467 -0.691617 -21.7925  255 255 255
-1.64092 -0.859507 -22.7181  255 255 255
-0.807397 -0.909917 -22.5056  255 255 255
15.8197 -1.34668 -27.7015  255 255 255
17.2267 -1.52438 -30.4208  255 255 255
15.2721 -1.51128 -28.9764  255 255 255
15.7653 -1.22208 -24.2991  255 255 255
3.8558 -1.08917 -22.2291  255 255 255
3.66252 -1.1622 -22.2247  255 255 255
3.20638 -1.18535 -21.9649  255 255 255
16.0022 -1.70249 -27.3603  255 255 255
2.85271 -1.19268 -21.6496  255 255 255
-2.20281 -1.29525 -22.1868  255 255 255
1.50833 -1.51055 -21.1326  255 255 255
4.71075 -1.8043 -22.7092  255 255 255
16.3472 -2.15254 -24.9465  255 255 255
16.0549 -2.52765 -27.8495  255 255 255
-9.16166 -2.48929 -27.0687  255 255 255
-9.38724 -2.95959 -25.9684  255 255 255
-9.02268 -3.44463 -27.3303  255 255 255
-2.09463 -2.86761 -22.7893  255 255 255
0.800778 -2.56698 -20.0601  255 255 255
-0.583003 -2.81304 -21.6824  255 255 255
1.85378 -2.59702 -19.9388  255 255 255
-2.37127 -3.12624 -23.6318  255 255 255
1.65061 -2.61464 -19.8294  255 255 255
-9.20297 -3.68352 -26.4552  255 255 255
1.18934 -2.76189 -19.8877  255 255 255
0.907465 -2.80691 -19.9273  255 255 255
1.11543 -2.93496 -19.6961  255 255 255
0.12814 -3.373 -21.8356  255 255 255
1.05545 -3.03592 -19.688  255 255 255
-2.21483 -3.79254 -23.9012  255 255 255
0.193053 -3.53761 -21.9743  255 255 255
-18.0951 -5.05801 -26.9014  255 255 255
13.3609 -5.26103 -27.4225  255 255 255
17.1318 -6.02868 -28.5703  255 255 255
15.9983 -6.12807 -27.8796  255 255 255
2.21923 -4.60725 -21.4207  255 255 255
15.4598 -6.37656 -27.1781  255 255 255
14.7539 -6.60408 -26.8037  255 255 255
4.66982 -5.54471 -21.978  255 255 255
13.2618 -6.75688 -25.7049  255 255 255
-4.08031 -6.69978 -22.3255  255 255 255
-3.41113 -7.18704 -22.7595  255 255 255
13.957 -8.33871 -24.6069  255 255 255
9.99567 -7.93342 -23.3921  255 255 255
7.91642 -7.61709 -22.3435  255 255 255
1.8805 -8.16888 -22.7785  255 255 255
1.64526 -8.00637 -21.8117  255 255 255
-2.04572 -8.17209 -21.505  255 255 255
7.27163 -8.29685 -21.5133  255 255 255
-0.218984 -8.5333 -22.4569  255 255 255
-5.86123 -8.15456 -21.1301  255 255 255
12.5973 -9.03676 -23.1328  255 255 255
7.88488 -8.74511 -22.4303  255 255 255
0.469446 -8.69047 -22.2504  255 255 255
0.674035 -8.7248 -22.2916  255 255 255
-0.396884 -8.35003 -21.2618  255 255 255
0.897648 -8.70392 -22.1164  255 255 255
1.69018 -8.84496 -22.1765  255 255 255
9.24267 -8.81773 -21.6668  255 255 255
0.146232 -8.84301 -22.1051  255 255 255
0.282949 -8.98051 -22.0017  255 255 255
-4.65236 17.1497 -37.2916  255 255 255
2.28684 21.4989 -48.3323  255 255 255
-13.2881 15.2885 -32.4737  255 255 255
8.87185 19.9992 -44.8432  255 255 255
-13.5462 15.2071 -32.3554  255 255 255
-12.1108 15.4733 -33.2149  255 255 255
-12.1108 15.4733 -33.2149  255 255 255
-7.26579 16.4524 -36.0161  255 255 255
13.4037 16.4028 -35.709  255 255 255
-10.481 17.0718 -37.6024  255 255 255
-9.7403 15.8758 -34.5705  255 255 255
-0.0855597 17.8674 -40.0647  255 255 255
12.1396 20.217 -46.4293  255 255 255
13.4625 14.1329 -30.578  255 255 255
4.46856 21.1547 -49.2992  255 255 255
12.6193 15.0687 -33.2597  255 255 255
12.7225 14.5448 -31.9036  255 255 255
-13.3599 14.867 -32.7991  255 255 255
6.08365 18.7966 -43.6088  255 255 255
10.1784 19.5779 -45.5649  255 255 255
0.748355 20.2554 -48.1651  255 255 255
13.1983 13.953 -31.1696  255 255 255
13.611 13.6613 -30.5759  255 255 255
-29.6567 23.143 -55.3689  255 255 255
14.4738 20.0216 -48.3927  255 255 255
6.87225 18.3583 -44.4992  255 255 255
-28.1685 21.9447 -53.2271  255 255 255
11.4116 19.1345 -46.6189  255 255 255
12.8412 11.4298 -25.3376  255 255 255
6.8639 18.1993 -44.6961  255 255 255
1.95726 19.2251 -49.1815  255 255 255
-25.1339 19.0669 -48.9784  255 255 255
-25.1339 19.0669 -48.9784  255 255 255
-5.29041 16.6345 -43.588  255 255 255
12.6124 13.5304 -34.7028  255 255 255
12.7119 13.6278 -34.9951  255 255 255
12.2131 10.4702 -25.4939  255 255 255
12.5897 12.7439 -33.5559  255 255 255
13.779 12.0604 -31.6409  255 255 255
12.998 12.3129 -33.1223  255 255 255
-16.987 13.3365 -36.086  255 255 255
13.2134 9.99064 -25.5715  255 255 255
-2.92857 14.3896 -40.8801  255 255 255
-24.2041 17.1362 -49.0875  255 255 255
-17.128 14.0696 -39.6595  255 255 255
14.8306 8.87786 -22.5516  255 255 255
14.964 8.69786 -22.3379  255 255 255
13.7266 9.21525 -24.8974  255 255 255
13.3163 9.09776 -25.9094  255 255 255
13.3163 9.09776 -25.9094  255 255 255
13.407 8.77923 -24.7806  255 255 255
13.6511 8.92254 -25.283  255 255 255
-8.96581 13.1291 -42.2489  255 255 255
13.5772 8.75958 -25.5236  255 255 255
12.9533 9.01068 -26.7501  255 255 255
12.7946 9.07881 -27.1398  255 255 255
12.7946 9.07881 -27.1398  255 255 255
13.3137 8.73875 -26.4102  255 255 255
14.5797 8.01625 -23.8471  255 255 255
-15.8735 11.9204 -40.1704  255 255 255
14.4898 7.81392 -24.1273  255 255 255
13.4882 8.16343 -26.166  255 255 255
-16.8769 11.4909 -40.3406  255 255 255
13.3584 9.60672 -33.7929  255 255 255
14.1744 7.25841 -23.5661  255 255 255
15.1645 7.14632 -22.9674  255 255 255
15.1645 7.14632 -22.9674  255 255 255
13.4161 9.86949 -35.4149  255 255 255
13.4068 7.85823 -26.5901  255 255 255
12.8489 7.57394 -25.3737  255 255 255
1.23167 13.7963 -53.5348  255 255 255
14.9178 7.05443 -23.6593  255 255 255
12.7 7.91717 -28.2229  255 255 255
1.27923 12.5791 -50.4687  255 255 255
13.8164 10.7436 -42.0336  255 255 255
12.7123 7.12908 -25.4607  255 255 255
14.2289 7.02886 -25.3515  255 255 255
12.9535 7.03815 -26.2461  255 255 255
13.3559 7.22796 -27.1454  255 255 255
12.6523 7.41156 -28.5982  255 255 255
15.2214 7.80401 -30.6186  255 255 255
14.7276 8.10465 -32.9108  255 255 255
-12.5264 10.1541 -43.8212  255 255 255
13.9585 6.69842 -26.1638  255 255 255
-4.9978 10.4101 -46.6194  255 255 255
1.64042 9.91912 -47.8218  255 255 255
12.9784 6.60285 -28.5181  255 255 255
13.4266 6.41211 -27.573  255 255 255
-14.7777 9.78439 -47.3443  255 255 255
-13.7196 9.32755 -45.5879  255 255 255
-2.45371 8.31485 -44.2468  255 255 255
14.2774 5.48786 -26.1679  255 255 255
-2.62486 7.72489 -42.5546  255 255 255
13.3477 5.65143 -28.3373  255 255 255
14.3117 5.22664 -26.3365  255 255 255
17.0356 5.70197 -29.3969  255 255 255
14.2187 4.97428 -26.8287  255 255 255
-17.0932 6.99094 -42.426  255 255 255
18.1433 5.35496 -30.1161  255 255 255
1.17137 4.25905 -23.9006  255 255 255
-8.57728 6.00916 -39.3567  255 255 255
-7.96605 5.99522 -39.6215  255 255 255
14.2464 4.18651 -27.2076  255 255 255
15.3404 3.58668 -24.8481  255 255 255
14.2331 3.78446 -27.5397  255 255 255
14.2331 3.78446 -27.5397  255 255 255
15.0568 3.53836 -25.673  255 255 255
15.5396 3.35336 -24.692  255 255 255
14.3513 3.46109 -26.3127  255 255 255
14.2189 3.3905 -25.3799  255 255 255
15.2873 3.03793 -25.6  255 255 255
15.5151 2.8 -22.8697  255 255 255
15.7684 2.90239 -24.6178  255 255 255
-12.4115 3.39637 -33.3027  255 255 255
12.8393 3.11488 -31.8824  255 255 255
15.0663 2.68346 -26.4151  255 255 255
18.6265 2.89618 -29.5583  255 255 255
18.6265 2.89618 -29.5583  255 255 255
14.651 2.6125 -27.4311  255 255 255
15.2688 2.46767 -26.0208  255 255 255
15.2688 2.46767 -26.0208  255 255 255
14.8726 2.28487 -23.8587  255 255 255
16.1573 2.12246 -24.0949  255 255 255
-12.0423 2.44298 -35.7064  255 255 255
-10.2092 2.29229 -33.7514  255 255 255
12.9318 2.12965 -32.308  255 255 255
13.9157 2.22799 -34.9534  255 255 255
-12.7116 2.24199 -35.224  255 255 255
-12.1582 2.18828 -33.4553  255 255 255
-9.11382 2.18517 -34.6208  255 255 255
15.5755 2.45252 -42.5033  255 255 255
-10.8548 2.04995 -33.392  255 255 255
-12.1976 1.99161 -33.3662  255 255 255
-1.38377 1.4711 -21.3445  255 255 255
-23.2116 1.75919 -34.5973  255 255 255
14.1223 1.31881 -29.6501  255 255 255
-20.9749 1.04719 -33.6056  255 255 255
-0.809723 0.734954 -26.7013  255 255 255
-0.813506 0.583718 -22.5417  255 255 255
-0.813506 0.583718 -22.5417  255 255 255
2.85825 0.580979 -19.9623  255 255 255
16.0291 0.495146 -25.6587  255 255 255
2.66599 0.537765 -21.7699  255 255 255
-8.50602 0.30917 -32.2361  255 255 255
16.3082 0.347873 -25.0012  255 255 255
16.3082 0.347873 -25.0012  255 255 255
-8.89916 0.187121 -32.3952  255 255 255
-3.03048 0.337033 -23.2401  255 255 255
14.8704 0.237495 -26.2908  255 255 255
16.268 0.185058 -25.2207  255 255 255
16.268 0.185058 -25.2207  255 255 255
15.5014 0.0914592 -27.185  255 255 255
15.0853 0.0186741 -28.2959  255 255 255
-11.3546 -0.152481 -31.0208  255 255 255
5.15527 -0.0511769 -21.8478  255 255 255
-9.56804 -0.641192 -30.6039  255 255 255
-0.0629884 -0.348874 -23.014  255 255 255
-10.0295 -0.774923 -30.9728  255 255 255
5.5629 -0.60294 -23.5976  255 255 255
15.166 -0.941429 -28.847  255 255 255
3.93511 -0.921716 -22.2145  255 255 255
4.30212 -1.08651 -22.39  255 255 255
5.2354 -1.03396 -21.5064  255 255 255
2.279 -1.00828 -20.5051  255 255 255
16.0364 -1.56709 -25.356  255 255 255
1.11166 -1.18213 -21.0224  255 255 255
3.30435 -1.34394 -21.8123  255 255 255
16.166 -1.8906 -27.1213  255 255 255
-0.8514 -1.55426 -22.0657  255 255 255
-4.15687 -1.95896 -25.5019  255 255 255
4.23086 -1.68894 -20.8071  255 255 255
16.1675 -2.68993 -27.6626  255 255 255
-9.30472 -2.58667 -26.703  255 255 255
4.78989 -2.11753 -22.3013  255 255 255
18.641 -3.2144 -29.891  255 255 255
3.0309 -2.1367 -21.602  255 255 255
1.23961 -2.64308 -20.0217  255 255 255
2.08226 -2.79752 -20.5213  255 255 255
2.02521 -2.71472 -19.9675  255 255 255
0.512589 -3.87345 -21.3744  255 255 255
-0.275113 -4.00097 -21.8699  255 255 255
0.5224 -4.47318 -22.6513  255 255 255
1.39493 -4.34466 -21.761  255 255 255
1.65352 -4.54608 -22.1181  255 255 255
11.5983 -5.99866 -25.2671  255 255 255
15.6883 -6.63747 -27.1346  255 255 255
16.0982 -6.72567 -27.2995  255 255 255
-5.35941 -6.91483 -23.2128  255 255 255
15.3404 -7.88358 -25.6251  255 255 255
7.83197 -6.95501 -22.8995  255 255 255
7.58116 -7.15347 -22.6205  255 255 255
7.69714 -7.62287 -23.7135  255 255 255
14.1714 -8.23467 -24.7682  255 255 255
-2.97294 -7.47035 -22.4506  255 255 255
8.71722 -7.881 -21.7924  255 255 255
-14.4208 -8.7243 -22.2797  255 255 255
7.55228 -8.57552 -21.4007  255 255 255
13.1606 -9.53364 -23.1182  255 255 255
-14.128 16.0763 -35.9035  255 255 255
-13.0894 14.9215 -32.9038  255 255 255
11.4919 23.0367 -54.963  255 255 255
12.9198 14.2868 -31.6  255 255 255
13.3531 13.9564 -30.9406  255 255 255
13.371 19.9128 -47.6985  255 255 255
13.4375 10.7259 -24.2194  255 255 255
12.0956 18.6811 -48.2731  255 255 255
13.5098 10.3973 -24.5603  255 255 255
-6.35516 16.4568 -43.632  255 255 255
4.30321 20.6488 -56.6025  255 255 255
13.9131 9.90423 -23.6192  255 255 255
13.8708 9.93177 -24.0358  255 255 255
14.2227 9.31678 -22.081  255 255 255
0.58988 17.5105 -48.2394  255 255 255
12.609 10.4826 -26.5463  255 255 255
14.1356 9.58365 -23.7221  255 255 255
13.8045 9.73887 -24.3631  255 255 255
13.8045 9.73887 -24.3631  255 255 255
13.5353 9.5544 -25.0928  255 255 255
13.8588 9.1728 -24.6736  255 255 255
13.0605 9.40692 -26.2512  255 255 255
12.636 9.04936 -25.7213  255 255 255
13.9373 11.362 -34.9813  255 255 255
16.7208 12.4924 -40.617  255 255 255
-21.8502 14.0566 -46.7351  255 255 255
-30.1833 16.4808 -58.0213  255 255 255
14.0063 7.2887 -22.0986  255 255 255
-29.9889 15.8625 -56.8866  255 255 255
-29.9889 15.8625 -56.8866  255 255 255
-16.8749 11.0922 -38.0625  255 255 255
13.2138 7.60369 -24.1334  255 255 255
14.8071 7.40602 -23.6718  255 255 255
14.5053 6.79018 -22.128  255 255 255
14.3386 7.04044 -24.3357  255 255 255
13.652 7.40311 -26.4152  255 255 255
13.0005 7.47602 -27.7856  255 255 255
-13.4645 9.68884 -38.9257  255 255 255
-7.12417 11.3262 -47.7003  255 255 255
-7.12417 11.3262 -47.7003  255 255 255
13.0693 7.09315 -27.8324  255 255 255
13.2991 7.05946 -27.6347  255 255 255
12.3563 7.35777 -29.2507  255 255 255
13.367 6.74345 -27.4215  255 255 255
14.258 6.34194 -25.7846  255 255 255
-16.5244 8.76568 -41.3955  255 255 255
1.69888 9.23211 -45.7157  255 255 255
13.1254 4.90205 -28.7677  255 255 255
13.1739 4.91678 -28.8837  255 255 255
13.814 5.21764 -31.3733  255 255 255
15.6129 4.28995 -23.9282  255 255 255
13.876 4.26201 -26.071  255 255 255
13.8502 4.21073 -25.4043  255 255 255
-7.97216 5.58476 -38.8701  255 255 255
14.5265 4.19333 -26.3589  255 255 255
15.9221 3.42455 -23.9657  255 255 255
14.0536 3.64108 -28.1108  255 255 255
15.7332 3.31857 -24.3244  255 255 255
14.3966 3.25743 -27.6556  255 255 255
14.946 2.6532 -24.2656  255 255 255
-0.607851 2.37049 -22.9442  255 255 255
-0.607851 2.37049 -22.9442  255 255 255
15.871 2.45973 -24.6202  255 255 255
16.0545 2.25427 -24.364  255 255 255
-10.819 2.55224 -35.5079  255 255 255
16.1545 1.86985 -24.4818  255 255 255
14.2041 1.86224 -27.6688  255 255 255
14.3115 1.87007 -27.8983  255 255 255
15.8961 1.74351 -25.0358  255 255 255
14.1166 1.7403 -29.3346  255 255 255
-9.14232 1.20543 -32.9363  255 255 255
-3.5017 1.02843 -24.3016  255 255 255
15.679 0.953325 -26.0847  255 255 255
-10.8687 0.815533 -33.0381  255 255 255
-8.88686 0.748836 -32.0146  255 255 255
-10.55 0.494072 -31.7581  255 255 255
3.10002 0.56618 -21.7485  255 255 255
16.3904 0.452446 -24.7764  255 255 255
16.2709 -0.35594 -30.7873  255 255 255
15.1599 -0.243313 -28.5428  255 255 255
14.9969 -0.546795 -28.9165  255 255 255
15.5343 -0.616138 -27.62  255 255 255
15.5343 -0.616138 -27.62  255 255 255
-11.0182 -0.746449 -31.077  255 255 255
-9.67565 -0.960339 -30.8119  255 255 255
-10.0433 -1.12834 -30.2409  255 255 255
3.49028 -0.778865 -22.0505  255 255 255
-1.40509 -0.904579 -22.4467  255 255 255
-10.1127 -1.53611 -29.5617  255 255 255
-1.13168 -1.07985 -22.3204  255 255 255
-10.4667 -1.61669 -29.5048  255 255 255
15.7934 -1.65152 -27.8151  255 255 255
17.1937 -2.01444 -31.2489  255 255 255
