ply
format ascii 1.0
element vertex 1234
property float x
property float y
property float z
property uchar red
property uchar green
property uchar blue
end_header
12.9318 5.70609 -30.6305  255 255 255
3.40742 -0.458094 -22.1056  255 255 255
12.8488 10.0895 -36.8983  255 255 255
3.91974 -2.5896 -21.7462  255 255 255
7.67185 16.6422 -48.9485  255 255 255
13.6676 3.20698 -30.7485  255 255 255
6.29696 16.7692 -37.5887  255 255 255
-2.24774 3.22313 -26.7054  255 255 255
-0.351472 -2.36184 -21.7318  255 255 255
-1.82344 -1.64647 -22.3788  255 255 255
3.01051 -4.00038 -22.2878  255 255 255
12.8327 6.70372 -30.4815  255 255 255
-2.46987 1.07666 -24.3198  255 255 255
-0.142132 -0.998501 -22.1952  255 255 255
1.08148 -1.99894 -21.789  255 255 255
-0.787878 -2.39159 -21.6134  255 255 255
2.76216 -5.05561 -23.2354  255 255 255
0.757424 -2.8035 -21.3423  255 255 255
-0.261204 -2.61848 -21.5175  255 255 255
-1.81689 -1.80462 -22.2027  255 255 255
0.027275 -2.99414 -21.7011  255 255 255
-0.203563 -2.78535 -21.6227  255 255 255
-2.0817 -2.05922 -22.5673  255 255 255
11.2504 19.3758 -49.0615  255 255 255
2.55312 -4.44381 -22.7219  255 255 255
13.6523 3.9228 -30.2278  255 255 255
13.6833 -4.93409 -27.2278  255 255 255
-7.51499 14.3147 -39.1677  255 255 255
-11.1054 13.1548 -37.5141  255 255 255
-6.199 14.9074 -39.7302  255 255 255
-10.3682 14.6739 -36.7241  255 255 255
-0.871316 -0.107818 -22.785  255 255 255
-1.03761 1.86568 -23.1595  255 255 255
-0.426277 -3.67545 -22.5826  255 255 255
-0.257296 -3.0941 -21.9313  255 255 255
-1.28433 -1.00842 -22.5147  255 255 255
-2.72989 0.336579 -24.0351  255 255 255
-1.93989 -0.858984 -22.9877  255 255 255
-0.931463 0.462207 -22.7752  255 255 255
-2.19792 -3.20646 -23.7117  255 255 255
-1.36921 -1.10352 -22.5737  255 255 255
-0.228895 -3.35512 -22.1824  255 255 255
-1.22761 -1.02455 -22.4858  255 255 255
-0.575776 -3.83698 -22.77  255 255 255
-0.759544 -1.29947 -22.1769  255 255 255
-1.65956 -0.946975 -22.796  255 255 255
0.241839 -1.54265 -21.8644  255 255 255
0.252922 -1.84765 -21.9797  255 255 255
-1.20802 -1.25483 -22.5424  255 255 255
-1.20794 -1.2547 -22.5424  255 255 255
0.582555 -1.77384 -21.8333  255 255 255
-0.530987 -3.91564 -22.796  255 255 255
0.143738 -1.68849 -21.9559  255 255 255
-0.750074 -3.85828 -22.875  255 255 255
-0.576939 -3.34877 -22.3284  255 255 255
-2.05527 -3.64676 -23.6767  255 255 255
0.177797 -3.02822 -21.6421  255 255 255
0.907258 -1.92274 -21.8087  255 255 255
-1.65345 -3.43445 -23.2248  255 255 255
9.71706 20.5056 -46.9266  255 255 255
-9.48435 15.0264 -37.0202  255 255 255
-9.26202 14.8613 -37.3303  255 255 255
-9.35228 12.4226 -39.5515  255 255 255
-15.2937 9.19591 -37.7925  255 255 255
-9.58582 13.1278 -38.7239  255 255 255
-13.2436 11.2932 -37.1728  255 255 255
-8.46024 14.0751 -38.7492  255 255 255
-9.02169 13.9119 -38.3887  255 255 255
-5.51726 11.8179 -43.2876  255 255 255
-7.51652 14.3164 -39.1701  255 255 255
-6.9143 7.7957 -40.0964  255 255 255
-9.16993 13.3727 -38.8179  255 255 255
-7.09859 14.5155 -39.3997  255 255 255
-7.13877 12.804 -40.9418  255 255 255
-5.74331 12.4903 -42.3063  255 255 255
-9.90894 13.246 -38.3454  255 255 255
-11.0961 13.1471 -37.4813  255 255 255
-14.1834 11.6886 -36.5091  255 255 255
-11.369 10.3437 -40.0543  255 255 255
-10.2176 7.22687 -39.2949  255 255 255
-19.537 1.29617 -32.157  255 255 255
-20.6752 1.67138 -32.8277  255 255 255
-20.8966 1.18154 -32.2354  255 255 255
-6.70432 12.7107 -41.2599  255 255 255
-6.20127 14.9124 -39.7255  255 255 255
-11.1917 13.3603 -37.077  255 255 255
-7.71159 14.1953 -39.1869  255 255 255
-8.35023 14.0146 -38.9072  255 255 255
-6.86574 14.773 -39.2942  255 255 255
-8.93074 6.48622 -38.6236  255 255 255
-13.8945 8.63125 -40.0376  255 255 255
-9.64984 6.7642 -38.8597  255 255 255
-10.3718 12.1319 -38.9682  255 255 255
-6.0461 14.3441 -40.3851  255 255 255
-6.0461 14.3446 -40.3867  255 255 255
-9.57287 11.7806 -39.9962  255 255 255
-6.51133 11.8288 -42.3601  255 255 255
-6.98442 13.2214 -40.6489  255 255 255
-9.94961 14.4256 -37.1765  255 255 255
-8.87531 13.803 -38.656  255 255 255
-9.94961 14.4256 -37.1765  255 255 255
-9.03254 12.7786 -39.2117  255 255 255
-9.00105 12.2002 -40.0068  255 255 255
-8.05575 14.2674 -38.8636  255 255 255
-7.26972 12.9923 -40.625  255 255 255
-9.19059 11.802 -40.3519  255 255 255
-8.05732 14.2672 -38.8664  255 255 255
-8.08116 13.9362 -39.0833  255 255 255
-10.0221 11.5555 -39.8073  255 255 255
-12.356 12.6935 -36.9223  255 255 255
-11.3062 10.9967 -39.4487  255 255 255
-11.7075 10.4702 -39.6258  255 255 255
-11.8095 10.0678 -39.9276  255 255 255
-9.04683 11.7586 -40.3849  255 255 255
-7.3478 14.1689 -39.5138  255 255 255
-12.3483 13.5251 -36.2094  255 255 255
-7.30555 14.3556 -39.3559  255 255 255
-7.19116 14.4797 -39.3707  255 255 255
0.0205838 -3.4066 -22.1033  255 255 255
-1.925 -3.12208 -23.278  255 255 255
-0.394663 -3.32971 -22.2164  255 255 255
-1.86627 -3.24674 -23.3567  255 255 255
-0.070705 -3.56942 -22.2743  255 255 255
-6.81893 15.5169 -38.668  255 255 255
-6.49947 13.3034 -40.9339  255 255 255
-6.03134 14.5127 -40.2514  255 255 255
-16.3789 9.7226 -36.8046  255 255 255
-11.4175 11.0046 -39.2977  255 255 255
-12.9504 9.69322 -39.4176  255 255 255
-13.2326 11.2877 -37.1449  255 255 255
-11.671 11.3429 -38.7943  255 255 255
-2.52632 0.671039 -23.8525  255 255 255
3.94752 -0.17911 -22.2788  255 255 255
2.05512 -2.50492 -21.7043  255 255 255
4.13314 -2.27198 -22.0751  255 255 255
2.91679 -3.99582 -21.9961  255 255 255
-2.65714 1.07872 -24.2955  255 255 255
-2.58459 2.67843 -26.0648  255 255 255
5.9425 -0.13984 -23.6022  255 255 255
3.1985 -2.66276 -21.6469  255 255 255
0.376781 -1.25331 -21.9445  255 255 255
-0.902139 -2.2128 -21.8257  255 255 255
-1.74588 -1.73944 -22.2971  255 255 255
-4.06781 1.79936 -26.0688  255 255 255
-4.2487 -6.93738 -24.243  255 255 255
3.04707 1.08001 -21.9464  255 255 255
1.59531 7.8662 -40.5118  255 255 255
3.48462 0.52277 -22.0306  255 255 255
-0.311557 3.99022 -24.4109  255 255 255
13.1889 2.40079 -32.4741  255 255 255
-3.48193 -0.0883029 -23.9902  255 255 255
2.25554 -0.994417 -22.0489  255 255 255
1.66524 -3.00179 -21.2104  255 255 255
3.95943 2.49654 -22.8297  255 255 255
2.79873 -5.13036 -23.3112  255 255 255
1.9338 1.79135 -21.9687  255 255 255
2.67445 -2.02403 -21.8417  255 255 255
0.780966 4.01789 -24.2978  255 255 255
1.61352 7.99274 -40.5817  255 255 255
-2.02112 3.49829 -27.1183  255 255 255
13.4108 3.96275 -30.8217  255 255 255
-2.12153 -3.12694 -23.5199  255 255 255
-1.4171 -1.76768 -22.2874  255 255 255
6.58147 15.7705 -48.8723  255 255 255
-8.29883 12.9146 -39.9082  255 255 255
-1.2971 16.932 -41.6799  255 255 255
-2.58853 15.7535 -41.7829  255 255 255
0.518088 1.78426 -22.2239  255 255 255
-4.17937 15.8432 -40.4198  255 255 255
2.28615 1.5667 -21.9333  255 255 255
2.12849 9.14612 -41.9542  255 255 255
-1.42432 0.255042 -23.2546  255 255 255
0.343923 3.20671 -23.1496  255 255 255
-12.1176 2.88496 -34.5908  255 255 255
-10.574 1.05472 -32.7029  255 255 255
3.90075 -3.44469 -22.0729  255 255 255
-1.04016 -4.42017 -23.3656  255 255 255
13.2264 5.33314 -30.3209  255 255 255
-11.2918 1.41333 -33.066  255 255 255
-11.5672 0.914665 -32.2161  255 255 255
-6.18884 -7.66773 -23.4275  255 255 255
13.4757 10.4325 -35.1069  255 255 255
12.6306 6.7802 -30.8455  255 255 255
14.5435 0.565213 -30.6133  255 255 255
6.56509 -2.29882 -23.5777  255 255 255
1.36326 9.21161 -41.9407  255 255 255
-14.2653 6.59736 -38.5559  255 255 255
6.21797 -5.27093 -24.1012  255 255 255
-2.64862 -8.50598 -22.5854  255 255 255
3.0634 -0.286462 -21.9417  255 255 255
-0.303646 3.48743 -23.7337  255 255 255
0.968819 -1.34123 -21.9133  255 255 255
-15.4104 10.9818 -36.1652  255 255 255
-12.4746 10.3079 -38.8914  255 255 255
1.10798 -2.74996 -21.3766  255 255 255
-4.40896 5.62802 -37.6605  255 255 255
3.96664 1.075 -22.3053  255 255 255
-0.473217 3.25837 -23.6722  255 255 255
2.75457 -4.96405 -23.1417  255 255 255
12.5247 5.76058 -31.613  255 255 255
-8.02014 12.7718 -40.2935  255 255 255
-0.142325 -0.998071 -22.1868  255 255 255
4.31479 -4.19798 -23.0802  255 255 255
4.94441 2.63052 -23.6783  255 255 255
-2.11458 -1.40819 -22.6165  255 255 255
-0.242138 3.15991 -23.379  255 255 255
0.613027 -2.85363 -21.301  255 255 255
1.31546 0.533235 -21.7812  255 255 255
2.49606 -4.59852 -22.7071  255 255 255
-0.0526837 0.187666 -22.2134  255 255 255
-2.41129 -8.55127 -22.5784  255 255 255
2.24065 -1.5264 -21.7786  255 255 255
-2.8802 -8.54957 -22.6959  255 255 255
-7.15304 14.796 -38.9367  255 255 255
-1.6841 16.5257 -41.79  255 255 255
-5.15292 15.2995 -40.1711  255 255 255
-1.88921 16.115 -42.0675  255 255 255
-12.2901 13.2903 -36.2077  255 255 255
0.780877 -1.79018 -21.8201  255 255 255
-4.27333 5.43325 -37.607  255 255 255
-6.64686 7.22424 -39.5649  255 255 255
-0.655891 16.8842 -42.2379  255 255 255
1.36427 17.4577 -43.1951  255 255 255
-3.43931 3.04725 -27.484  255 255 255
-0.126126 1.78561 -22.4954  255 255 255
12.709 4.66691 -31.9603  255 255 255
1.60205 1.43501 -21.8399  255 255 255
1.60205 1.43501 -21.8399  255 255 255
0.354504 -1.58998 -21.8157  255 255 255
-3.99559 -8.40626 -22.6706  255 255 255
-4.07425 -8.40546 -22.656  255 255 255
-2.68789 -8.65192 -22.4423  255 255 255
1.31875 1.99073 -22.089  255 255 255
13.1632 4.2901 -31.1683  255 255 255
0.855897 2.66321 -22.5683  255 255 255
0.727305 -6.2013 -22.7745  255 255 255
-0.14058 -0.0616743 -22.3306  255 255 255
1.30934 -0.651088 -21.9642  255 255 255
-1.35157 2.29095 -23.6927  255 255 255
-4.49377 -7.05934 -24.0688  255 255 255
-3.30033 -0.501902 -23.5549  255 255 255
0.284934 -1.90139 -22.0399  255 255 255
-0.190741 0.676068 -22.2931  255 255 255
2.99117 -1.68529 -21.758  255 255 255
0.0320844 -2.57225 -21.4772  255 255 255
2.51135 1.8286 -22.0098  255 255 255
-3.64452 -8.24295 -22.8373  255 255 255
6.77827 -0.975586 -23.7252  255 255 255
-10.6802 13.5466 -37.6861  255 255 255
-2.05099 16.5378 -41.4859  255 255 255
0.996181 -2.66916 -21.462  255 255 255
-0.15838 0.219983 -22.2789  255 255 255
14.5769 -1.25227 -31.3662  255 255 255
1.45638 -4.43834 -22.5711  255 255 255
3.03088 0.786044 -21.8849  255 255 255
-7.4462 2.50645 -34.3508  255 255 255
-4.48844 14.5554 -41.384  255 255 255
-4.80656 14.7543 -40.9826  255 255 255
-5.06946 15.4669 -40.0676  255 255 255
-5.75301 15.9175 -39.1618  255 255 255
-6.48562 15.6271 -38.825  255 255 255
-0.926838 16.8061 -42.1418  255 255 255
-9.25545 11.1654 -40.7978  255 255 255
-9.17958 11.3997 -40.6393  255 255 255
-0.398126 18.0193 -41.3387  255 255 255
-4.83786 12.4675 -43.1217  255 255 255
5.02544 19.8661 -43.9513  255 255 255
14.561 22.2785 -48.9861  255 255 255
-0.451944 -0.464767 -22.5518  255 255 255
0.0649347 3.38602 -23.4273  255 255 255
6.94397 -0.771854 -23.9582  255 255 255
-3.3802 2.96542 -27.3906  255 255 255
-3.24295 -7.7931 -23.324  255 255 255
14.4782 0.566494 -30.7857  255 255 255
-4.16968 -7.24692 -23.8694  255 255 255
-6.69935 -3.95302 -27.336  255 255 255
1.28657 -8.92782 -22.4855  255 255 255
1.78578 -4.61826 -22.7364  255 255 255
11.569 20.9837 -47.8858  255 255 255
1.43774 -0.337891 -21.8495  255 255 255
0.913262 -5.32856 -23.0148  255 255 255
14.1542 1.41594 -30.8822  255 255 255
12.6606 6.23313 -31.0309  255 255 255
13.5255 2.43546 -31.6253  255 255 255
-1.44972 -2.08225 -21.8966  255 255 255
-1.81118 2.43109 -24.4129  255 255 255
13.1331 3.33782 -32.0095  255 255 255
13.2321 2.58607 -32.2685  255 255 255
12.8997 4.03214 -31.9832  255 255 255
3.47345 15.0854 -47.187  255 255 255
-9.03306 14.345 -38.013  255 255 255
0.468843 18.0679 -42.0674  255 255 255
-5.44304 12.1103 -42.9697  255 255 255
7.20971 12.9535 -46.3119  255 255 255
1.10779 18.8047 -41.9328  255 255 255
8.62428 18.7543 -47.7023  255 255 255
-7.3339 1.38724 -33.1428  255 255 255
-1.25538 17.8065 -41.2394  255 255 255
-0.885352 17.0712 -41.9093  255 255 255
0.535029 15.0772 -44.563  255 255 255
-4.60029 9.23776 -41.7339  255 255 255
-0.348951 10.3518 -43.091  255 255 255
3.25257 1.10618 -21.9974  255 255 255
-5.09783 9.61776 -42.0228  255 255 255
11.6952 6.2796 -39.1705  255 255 255
-7.78535 -1.64122 -29.7748  255 255 255
0.620108 -1.45965 -21.7451  255 255 255
-5.56489 7.74016 -40.0198  255 255 255
1.80788 -1.29312 -22.0717  255 255 255
7.08909 -1.18503 -23.552  255 255 255
-7.83494 -1.76628 -29.6611  255 255 255
-6.3829 7.3883 -39.6387  255 255 255
3.94635 2.59586 -23.1049  255 255 255
-2.7659 16.4585 -41.4037  255 255 255
-13.7188 7.79299 -39.8847  255 255 255
-6.68426 7.38593 -39.5412  255 255 255
-12.3416 13.7045 -36.1063  255 255 255
-7.64278 2.41708 -34.1237  255 255 255
-2.74266 1.86516 -25.2011  255 255 255
-1.74783 15.9389 -42.2835  255 255 255
-20.5324 2.03333 -33.1736  255 255 255
-8.76203 3.15524 -34.9402  255 255 255
-5.53809 7.87935 -40.15  255 255 255
4.02565 -1.24047 -22.261  255 255 255
-10.7169 7.59337 -39.6141  255 255 255
-3.74864 9.99256 -42.4659  255 255 255
5.16997 2.42955 -23.9455  255 255 255
-1.72669 8.2029 -40.6353  255 255 255
14.8595 -1.15823 -30.7943  255 255 255
5.43174 -1.90747 -22.6089  255 255 255
6.99428 0.0907233 -24.8487  255 255 255
2.76397 10.2733 -43.2129  255 255 255
-11.7775 2.42167 -33.9952  255 255 255
7.20418 -0.504308 -24.284  255 255 255
3.25907 -1.33763 -22.0347  255 255 255
9.65667 -6.21766 -25.7194  255 255 255
0.813538 -1.33876 -21.8616  255 255 255
1.54227 2.27819 -22.2445  255 255 255
6.1389 14.7848 -48.1346  255 255 255
2.85221 1.78591 -22.1359  255 255 255
-3.34032 2.4333 -26.8117  255 255 255
6.06998 14.3981 -47.7582  255 255 255
2.68882 2.3359 -22.3249  255 255 255
9.67022 13.6702 -47.1244  255 255 255
-0.441716 2.25532 -22.9234  255 255 255
-0.183737 -3.87573 -22.6313  255 255 255
-2.6818 1.07403 -24.33  255 255 255
-0.32107 -1.01244 -22.1891  255 255 255
-3.4689 8.48398 -40.9566  255 255 255
-7.10706 6.62423 -38.7805  255 255 255
0.890622 2.18668 -22.2584  255 255 255
9.52156 13.9261 -47.6022  255 255 255
-4.27494 9.78252 -42.1565  255 255 255
-3.96657 8.72295 -41.1325  255 255 255
3.36343 -3.846 -22.1341  255 255 255
-3.76192 -8.3512 -22.6909  255 255 255
4.96603 2.06764 -23.2467  255 255 255
1.91085 -1.45763 -21.8181  255 255 255
-5.41019 -7.36589 -23.7474  255 255 255
5.45031 2.3032 -24.0534  255 255 255
-3.58496 -8.10557 -22.9573  255 255 255
-13.5007 4.81834 -36.6334  255 255 255
7.20676 13.887 -47.1318  255 255 255
-9.20931 2.79041 -34.7472  255 255 255
2.71657 -1.31168 -22.0304  255 255 255
-1.09718 2.56565 -23.597  255 255 255
14.2226 -6.14083 -25.7855  255 255 255
-4.64031 8.29888 -40.7223  255 255 255
-2.79087 3.82889 -28.4091  255 255 255
-3.20297 7.62552 -39.978  255 255 255
-4.35613 8.68294 -41.0455  255 255 255
5.39119 -2.16278 -22.3292  255 255 255
-3.33399 -8.44201 -22.8646  255 255 255
-0.0815523 3.97712 -24.2163  255 255 255
1.92596 -8.89591 -22.648  255 255 255
2.10744 -2.71867 -21.4639  255 255 255
6.60504 1.57852 -25.5576  255 255 255
2.49746 -2.54938 -21.6926  255 255 255
-0.624707 3.6979 -24.2496  255 255 255
-2.61198 -1.0888 -22.9387  255 255 255
4.53347 2.6772 -23.4236  255 255 255
-3.77132 -8.41222 -22.6673  255 255 255
5.22562 -1.90484 -22.5608  255 255 255
7.07181 -0.793268 -23.9276  255 255 255
-12.9954 4.57014 -36.3754  255 255 255
-7.31314 6.7445 -39.1315  255 255 255
-2.84763 -1.03002 -22.9815  255 255 255
-11.9476 1.9455 -33.5834  255 255 255
3.79094 0.093918 -22.1951  255 255 255
1.3414 8.81751 -41.5612  255 255 255
-4.41592 9.88177 -42.3205  255 255 255
12.9807 2.59619 -32.8692  255 255 255
-9.11747 2.62122 -34.4199  255 255 255
11.4359 12.6641 -46.1868  255 255 255
-2.24298 0.551089 -23.7221  255 255 255
-5.27159 9.97266 -42.7632  255 255 255
-5.1655 -6.87976 -24.2241  255 255 255
-5.00833 -7.94145 -23.1365  255 255 255
-21.3443 2.43638 -33.4998  255 255 255
-20.8784 2.1647 -33.2449  255 255 255
-21.8585 0.425045 -31.1815  255 255 255
-20.8765 2.49614 -33.4378  255 255 255
4.27611 3.55794 -23.9806  255 255 255
4.8213 0.343936 -22.7602  255 255 255
-16.5385 -6.88715 -23.4117  255 255 255
-4.8986 -7.60458 -23.4746  255 255 255
-4.34313 -7.80474 -23.2404  255 255 255
-0.923124 17.4225 -41.5635  255 255 255
2.32086 18.6595 -42.7412  255 255 255
-1.09782 17.388 -41.4542  255 255 255
-13.9312 -7.54057 -23.0391  255 255 255
-12.8814 10.3542 -39.1472  255 255 255
-12.8779 10.3542 -39.1439  255 255 255
-6.0343 14.5138 -40.2565  255 255 255
9.7267 20.1898 -47.3079  255 255 255
12.9245 18.4625 -51.1895  255 255 255
6.95193 15.9036 -49.1382  255 255 255
2.67393 17.5033 -44.2647  255 255 255
4.02867 -1.11335 -22.3392  255 255 255
4.49725 -3.52584 -22.5642  255 255 255
3.99726 -3.88857 -22.4923  255 255 255
-4.1104 -8.63208 -22.4125  255 255 255
-8.53871 6.6605 -38.801  255 255 255
-0.245077 2.88636 -23.2249  255 255 255
-2.44307 0.956251 -24.1856  255 255 255
13.8565 -0.185246 -32.4789  255 255 255
-3.77947 -8.24947 -22.787  255 255 255
12.7069 -4.85776 -27.3004  255 255 255
-1.95679 -8.78119 -22.3316  255 255 255
12.4535 9.79306 -38.1218  255 255 255
-1.67915 1.37273 -23.7017  255 255 255
2.7658 1.95911 -22.1422  255 255 255
5.19197 2.66709 -24.0104  255 255 255
-1.04895 -1.80631 -22.2609  255 255 255
3.2555 -0.527581 -22.0904  255 255 255
14.7539 -1.11264 -31.4292  255 255 255
4.43211 -3.52314 -22.5364  255 255 255
-4.1967 -7.3871 -23.7412  255 255 255
13.3128 -4.25644 -27.965  255 255 255
5.24738 1.9124 -23.5156  255 255 255
4.94191 -4.50387 -23.7388  255 255 255
13.19 -4.7871 -27.4932  255 255 255
11.2131 -6.97847 -24.9196  255 255 255
4.94206 2.86039 -23.9281  255 255 255
4.17064 -3.99618 -22.8128  255 255 255
-4.3315 -8.00382 -22.9775  255 255 255
3.76832 2.92719 -23.0533  255 255 255
7.42593 -0.162286 -24.72  255 255 255
4.76622 -3.26728 -22.47  255 255 255
4.76622 -3.26728 -22.47  255 255 255
4.78188 -4.39786 -23.4432  255 255 255
4.79815 -4.60836 -23.6418  255 255 255
13.1316 -4.03603 -28.1787  255 255 255
1.63589 -0.0694245 -21.7822  255 255 255
1.63906 -0.0710247 -21.8178  255 255 255
13.2237 17.8726 -51.585  255 255 255
-13.2765 11.3734 -36.8926  255 255 255
12.8917 9.0197 -37.508  255 255 255
12.9951 8.67357 -37.7562  255 255 255
2.61966 17.2888 -44.9906  255 255 255
-4.67275 16.8063 -39.2032  255 255 255
8.04836 16.4249 -49.4319  255 255 255
14.7278 -5.47986 -26.5756  255 255 255
12.7111 4.38648 -32.1654  255 255 255
3.14926 15.022 -46.9773  255 255 255
11.6033 19.1091 -49.6244  255 255 255
4.5331 19.3775 -44.0315  255 255 255
-11.8123 2.06546 -33.4783  255 255 255
-4.92073 11.9192 -43.5331  255 255 255
9.9315 21.0489 -46.602  255 255 255
0.561884 18.8669 -41.6639  255 255 255
-9.43314 13.2016 -38.747  255 255 255
-4.53754 -8.45706 -22.6405  255 255 255
4.14963 -1.02344 -22.5322  255 255 255
-2.78215 0.445938 -24.0776  255 255 255
-2.8759 0.290724 -24.2471  255 255 255
-8.94378 14.9638 -37.4804  255 255 255
-9.63704 11.0385 -40.6946  255 255 255
13.4478 1.72019 -32.3707  255 255 255
13.5262 1.58518 -32.2426  255 255 255
13.6935 3.62805 -30.3222  255 255 255
3.10136 -1.82957 -21.7889  255 255 255
13.818 1.20726 -31.68  255 255 255
13.9159 0.49582 -32.1663  255 255 255
-7.9279 12.8817 -40.1745  255 255 255
14.8657 -1.35051 -31.0763  255 255 255
14.9935 -0.635501 -30.332  255 255 255
-6.84443 13.4057 -40.4652  255 255 255
-10.6257 12.7149 -38.5555  255 255 255
-21.9035 14.3784 -43.2039  255 255 255
-8.77918 11.6929 -40.6881  255 255 255
-4.4881 14.0802 -41.8595  255 255 255
-0.333207 15.6584 -43.698  255 255 255
0.55779 -1.06037 -22.1856  255 255 255
-5.74094 14.4184 -40.524  255 255 255
12.4972 18.6023 -50.7328  255 255 255
5.85204 18.9945 -45.4435  255 255 255
12.5186 18.6308 -50.8342  255 255 255
12.2367 19.1212 -50.0971  255 255 255
-0.920285 17.418 -41.5613  255 255 255
-4.32342 15.0923 -40.9937  255 255 255
7.08891 13.2477 -46.5561  255 255 255
11.9822 18.109 -50.7619  255 255 255
-2.03996 -1.71725 -22.2672  255 255 255
-2.6489 2.54987 -25.9976  255 255 255
-5.05261 10.1892 -42.8778  255 255 255
2.83255 10.4546 -43.4018  255 255 255
7.40269 13.7383 -47.2206  255 255 255
-1.66022 -0.945719 -22.7927  255 255 255
7.97236 17.446 -48.454  255 255 255
-0.0435468 -0.0918935 -22.2846  255 255 255
-5.02314 10.4788 -43.0821  255 255 255
2.75924 -0.560851 -21.9576  255 255 255
-1.06655 -0.354997 -22.8008  255 255 255
1.7402 -0.85403 -21.9756  255 255 255
-1.33723 -0.503541 -22.6821  255 255 255
2.30182 1.95514 -22.0477  255 255 255
4.57579 -4.23587 -23.2643  255 255 255
14.4863 1.04372 -30.2982  255 255 255
-3.32274 3.03688 -27.4594  255 255 255
13.6327 1.65741 -31.8445  255 255 255
12.8986 4.03046 -31.9824  255 255 255
12.8357 3.21033 -32.76  255 255 255
2.07648 -0.952811 -22.0184  255 255 255
3.53597 0.270972 -22.0559  255 255 255
2.5476 -0.670234 -21.9567  255 255 255
4.64886 -1.14577 -22.4627  255 255 255
4.40528 -0.889023 -22.6679  255 255 255
-1.64602 -1.72611 -22.3377  255 255 255
7.16414 -0.908062 -23.845  255 255 255
2.919 -1.52213 -21.8502  255 255 255
3.29553 -1.25451 -22.1359  255 255 255
1.50108 -1.38775 -21.9136  255 255 255
-3.53476 -0.179129 -23.8721  255 255 255
0.124199 -3.3258 -21.9495  255 255 255
-0.930463 -0.374225 -22.7615  255 255 255
3.33099 -1.08795 -22.2734  255 255 255
12.7281 4.94268 -31.9011  255 255 255
2.89892 -2.60887 -21.6506  255 255 255
-1.99907 -1.19912 -22.878  255 255 255
2.0154 -1.57036 -21.7226  255 255 255
1.91415 -3.5951 -21.8059  255 255 255
4.59869 -2.09207 -22.3404  255 255 255
1.73997 -0.854242 -21.9758  255 255 255
-0.125978 -0.694036 -22.3857  255 255 255
-1.49432 -0.121661 -23.0002  255 255 255
0.048978 -0.378047 -22.2334  255 255 255
6.00253 -5.33297 -24.0721  255 255 255
0.33375 -1.32722 -21.8644  255 255 255
-1.39543 -0.0297458 -23.1512  255 255 255
0.067899 0.703895 -22.0066  255 255 255
12.6057 6.20974 -31.0774  255 255 255
2.95125 0.838698 -21.8685  255 255 255
-1.1332 0.371548 -22.9243  255 255 255
-0.0588513 1.02862 -22.263  255 255 255
3.2166 0.0502824 -21.9422  255 255 255
12.7052 6.19497 -30.8677  255 255 255
13.4437 4.31449 -30.5035  255 255 255
14.5222 0.820469 -30.4864  255 255 255
14.7197 -0.179859 -30.6426  255 255 255
7.0295 12.852 -46.2015  255 255 255
2.44212 -8.39729 -22.9824  255 255 255
-1.10453 -2.50298 -21.4752  255 255 255
4.68178 -1.789 -22.5471  255 255 255
-0.921053 -0.23988 -22.8312  255 255 255
3.53907 -2.65584 -21.6291  255 255 255
-1.60023 0.324435 -23.5486  255 255 255
3.61418 2.29432 -22.6029  255 255 255
2.81914 2.15758 -22.2349  255 255 255
2.36081 2.26409 -22.2302  255 255 255
-0.24117 3.15304 -23.3785  255 255 255
7.27395 16.5201 -48.789  255 255 255
2.09518 17.6601 -43.8492  255 255 255
13.1837 1.06455 -33.2629  255 255 255
13.325 0.875071 -33.1885  255 255 255
-14.9247 -7.67051 -22.7484  255 255 255
-4.78366 12.0892 -43.5163  255 255 255
-4.70117 9.8157 -42.0612  255 255 255
-2.95023 -0.898156 -23.1389  255 255 255
-3.75984 10.2472 -42.8158  255 255 255
1.6813 13.7452 -46.6373  255 255 255
7.24988 -0.165645 -24.6311  255 255 255
14.1628 -6.2198 -25.7507  255 255 255
1.96564 1.84752 -21.9983  255 255 255
3.13911 -2.56225 -21.7275  255 255 255
-0.231869 -1.29137 -21.9289  255 255 255
11.7579 17.7332 -50.9931  255 255 255
0.39864 -1.3588 -21.8558  255 255 255
13.5424 8.25513 -36.6574  255 255 255
2.61447 1.69337 -21.9866  255 255 255
-4.71924 11.7826 -43.6806  255 255 255
-6.31909 15.0795 -39.2512  255 255 255
-1.90883 16.2152 -41.8941  255 255 255
0.308786 -1.08408 -22.1413  255 255 255
4.28933 -4.39215 -23.1719  255 255 255
-4.67011 12 -43.5337  255 255 255
0.430158 0.140949 -22.003  255 255 255
-1.75381 -0.144947 -23.0409  255 255 255
2.89972 -3.23115 -21.5567  255 255 255
2.74736 0.918483 -21.849  255 255 255
-5.27999 12.7079 -42.4981  255 255 255
8.43675 17.6809 -48.6038  255 255 255
5.39206 -0.77315 -22.8969  255 255 255
-3.78968 13.3016 -43.1255  255 255 255
-5.75012 15.9114 -39.166  255 255 255
-6.71167 15.5122 -38.7449  255 255 255
-0.850954 1.18513 -22.7856  255 255 255
4.28909 16.971 -45.8925  255 255 255
-1.70126 16.8096 -41.2138  255 255 255
7.36922 13.6763 -46.9804  255 255 255
-6.48934 15.7644 -38.695  255 255 255
4.60329 -4.28635 -23.2639  255 255 255
14.4101 -5.99451 -26.0042  255 255 255
4.57336 17.0884 -46.0504  255 255 255
3.59833 3.87804 -24.3543  255 255 255
13.1344 8.9952 -36.917  255 255 255
4.52037 -2.27833 -22.1098  255 255 255
0.882452 -1.69353 -21.7207  255 255 255
3.40859 -0.458376 -22.112  255 255 255
-0.971141 -0.751577 -22.4234  255 255 255
6.74018 1.23686 -25.2113  255 255 255
-1.57908 -1.59442 -22.4453  255 255 255
5.3606 -0.510932 -23.148  255 255 255
6.39928 16.2896 -48.3223  255 255 255
0.15357 16.6271 -43.1022  255 255 255
-6.04717 13.9946 -40.6616  255 255 255
-5.20807 12.3435 -42.7804  255 255 255
5.00036 -3.59247 -22.9829  255 255 255
-3.08889 7.76799 -40.1966  255 255 255
12.3733 9.57637 -38.3348  255 255 255
-4.02771 6.82727 -39.1078  255 255 255
-0.556881 -1.18228 -22.0074  255 255 255
-0.446627 -0.563989 -22.5626  255 255 255
-7.31656 14.7078 -38.9704  255 255 255
2.35964 -1.25343 -22.0701  255 255 255
-11.645 10.1375 -39.9245  255 255 255
-12.7794 11.6052 -37.0651  255 255 255
2.4999 -1.40669 -21.9442  255 255 255
5.17642 -1.00346 -22.6466  255 255 255
5.46296 -2.07629 -22.3811  255 255 255
-2.27511 -1.5833 -22.4031  255 255 255
8.47516 10.6195 -43.8223  255 255 255
-3.30287 16.2124 -40.6132  255 255 255
6.30767 0.467211 -24.292  255 255 255
8.28556 17.5471 -48.5749  255 255 255
-3.34646 0.6376 -24.8075  255 255 255
3.88182 17.0106 -45.8968  255 255 255
-1.44245 16.8024 -41.6997  255 255 255
3.10667 16.0524 -45.7785  255 255 255
-1.50757 -1.53215 -22.5334  255 255 255
-1.44259 -1.23357 -22.7147  255 255 255
8.64781 7.63873 -40.5019  255 255 255
-1.53456 -1.33237 -22.7395  255 255 255
-0.0496153 2.18708 -22.6479  255 255 255
5.32144 -2.20601 -22.2845  255 255 255
-7.87062 13.385 -39.6918  255 255 255
-1.59157 16.8058 -41.5489  255 255 255
-6.99113 13.8668 -40.1392  255 255 255
-8.14387 11.0085 -42.0644  255 255 255
13.171 8.68606 -37.1241  255 255 255
-8.22867 10.8509 -42.2041  255 255 255
-6.92452 15.197 -38.8385  255 255 255
-8.99108 11.5515 -40.472  255 255 255
7.5715 0.632501 -25.5169  255 255 255
-6.89558 15.4785 -38.6733  255 255 255
12.8838 10.4635 -36.5324  255 255 255
13.2198 1.79239 -32.877  255 255 255
13.3017 0.871423 -33.1398  255 255 255
2.28405 1.10395 -21.8365  255 255 255
2.68663 0.714226 -21.834  255 255 255
4.085 -2.50047 -21.8487  255 255 255
0.930716 -8.86406 -22.3769  255 255 255
12.9688 -4.76459 -27.3887  255 255 255
-2.6561 -8.5849 -22.5433  255 255 255
14.0588 2.06722 -30.5311  255 255 255
-2.24927 -1.33744 -22.6882  255 255 255
14.101 0.586837 -31.4856  255 255 255
-1.44238 -1.23552 -22.7236  255 255 255
14.2414 0.682784 -31.1547  255 255 255
-0.534818 -0.52027 -22.6268  255 255 255
-1.18659 0.3897 -22.9889  255 255 255
13.7553 2.03724 -31.4661  255 255 255
-2.95763 -7.81414 -23.3131  255 255 255
-0.0603023 0.921646 -22.271  255 255 255
0.390596 -0.696286 -22.1624  255 255 255
1.42328 -0.91455 -22.0336  255 255 255
1.36157 -1.01753 -22.0609  255 255 255
1.27415 -1.05798 -22.066  255 255 255
-0.558161 -1.17755 -21.9951  255 255 255
13.987 1.16226 -31.5412  255 255 255
14.9057 -0.944943 -30.82  255 255 255
14.891 -1.44015 -31.2421  255 255 255
14.6884 -0.752997 -31.1376  255 255 255
-2.2339 -8.21062 -22.9399  255 255 255
11.9859 -4.16988 -28.0678  255 255 255
0.646648 1.63873 -22.1234  255 255 255
-4.65376 -6.89658 -24.2229  255 255 255
-13.5935 4.4158 -36.2272  255 255 255
2.14698 -1.66665 -21.6492  255 255 255
2.67579 -2.57723 -21.6712  255 255 255
7.53257 0.170387 -25.004  255 255 255
6.26587 -0.819548 -23.6787  255 255 255
5.78616 -2.09955 -22.4539  255 255 255
5.13078 -2.6709 -22.1808  255 255 255
1.8566 -3.00727 -21.2628  255 255 255
-4.08134 -7.53887 -23.6053  255 255 255
-3.47269 -8.3561 -22.7415  255 255 255
-3.62215 -8.4558 -22.6337  255 255 255
3.77391 3.48224 -23.7905  255 255 255
13.098 2.57691 -32.2866  255 255 255
4.80863 1.53706 -22.959  255 255 255
3.07691 -2.49616 -21.7814  255 255 255
-1.82038 0.133314 -23.2824  255 255 255
-2.98656 0.31794 -24.3896  255 255 255
-1.255 -0.233415 -22.9755  255 255 255
-0.671106 -0.920413 -22.2889  255 255 255
-0.716783 -1.91147 -22.1977  255 255 255
3.61973 -2.74915 -21.5382  255 255 255
6.05091 -0.00906023 -23.7545  255 255 255
6.26713 -1.03402 -23.5538  255 255 255
4.15344 -1.18925 -22.3008  255 255 255
3.50348 -1.17473 -22.2509  255 255 255
13.0244 -6.14599 -25.9494  255 255 255
5.6079 -0.234633 -23.4602  255 255 255
6.97697 -0.5736 -24.2202  255 255 255
6.11665 -1.7336 -22.8087  255 255 255
5.50174 -1.89642 -22.596  255 255 255
5.50345 -1.89989 -22.6055  255 255 255
0.601151 -1.28998 -22.055  255 255 255
5.01716 -3.18365 -22.5662  255 255 255
2.67977 -5.0825 -23.2402  255 255 255
6.08869 -1.16665 -23.3934  255 255 255
0.0203755 -2.56629 -21.45  255 255 255
-1.88667 -4.36339 -24.2167  255 255 255
3.63151 -3.52914 -21.5384  255 255 255
-2.31643 2.17749 -25.5862  255 255 255
1.53242 0.460946 -21.8123  255 255 255
-0.647701 16.0832 -43.0119  255 255 255
-5.46825 5.70318 -37.8986  255 255 255
-2.51614 2.10675 -25.4288  255 255 255
-2.96573 -1.22436 -22.7666  255 255 255
-0.708912 2.89817 -23.5242  255 255 255
-2.48213 2.53089 -25.9166  255 255 255
0.033338 14.883 -44.6787  255 255 255
1.55098 1.95222 -21.9692  255 255 255
-0.0809289 3.51589 -23.5791  255 255 255
0.492536 2.3132 -22.479  255 255 255
-7.75206 -1.43043 -30.0318  255 255 255
-11.4156 11.0548 -39.1178  255 255 255
-11.0156 13.439 -37.1478  255 255 255
2.59656 1.80229 -22.0273  255 255 255
3.67969 2.22625 -22.6069  255 255 255
0.26083 1.65294 -22.274  255 255 255
8.04088 17.2732 -48.7248  255 255 255
2.33165 1.2575 -21.8614  255 255 255
-0.466044 -1.06717 -22.0999  255 255 255
12.7486 19.0967 -50.5104  255 255 255
0.0585221 -2.48959 -21.5946  255 255 255
3.72989 19.4051 -43.2963  255 255 255
-3.09846 15.9698 -41.2384  255 255 255
-3.65704 15.7839 -40.9482  255 255 255
0.0428743 0.141392 -22.1744  255 255 255
5.58936 9.0395 -41.9861  255 255 255
7.00291 9.34466 -42.3613  255 255 255
6.0678 9.22558 -42.1408  255 255 255
4.3301 -3.40723 -22.3394  255 255 255
5.28745 0.176816 -23.2239  255 255 255
-8.34477 3.08926 -34.9021  255 255 255
-2.54575 0.775628 -23.988  255 255 255
-11.4869 0.958881 -32.4659  255 255 255
6.82207 3.29135 -28.565  255 255 255
-1.22731 -4.78705 -23.555  255 255 255
-8.65397 3.91845 -35.8205  255 255 255
13.1322 8.81261 -37.2708  255 255 255
6.73314 -0.54091 -24.1874  255 255 255
1.69603 7.79472 -40.4571  255 255 255
4.36399 -2.41792 -21.9424  255 255 255
5.53716 -3.4589 -23.1579  255 255 255
3.87305 3.022 -23.1796  255 255 255
0.820169 -6.13993 -22.8169  255 255 255
-0.00887614 -3.29074 -21.9935  255 255 255
2.47939 -4.76259 -22.8065  255 255 255
-9.28075 11.7953 -40.1902  255 255 255
-9.15932 12.655 -39.4955  255 255 255
-12.8756 10.501 -39.0188  255 255 255
-1.98972 -1.07881 -22.9384  255 255 255
-8.46804 12.9226 -39.498  255 255 255
-5.37285 11.3642 -43.6921  255 255 255
13.2705 12.1033 -45.6607  255 255 255
1.34495 4.23571 -24.8054  255 255 255
-6.49147 13.7917 -40.4049  255 255 255
-4.54851 -7.3086 -23.7756  255 255 255
6.52685 0.790026 -24.6708  255 255 255
-8.02651 -1.84102 -29.682  255 255 255
-6.05321 -7.66169 -23.4374  255 255 255
-2.75414 2.31972 -25.6994  255 255 255
12.7566 8.98893 -37.8775  255 255 255
-4.99153 4.83822 -36.9439  255 255 255
-1.80706 0.823391 -23.7287  255 255 255
-3.29423 8.22975 -40.6469  255 255 255
9.83304 -7.15749 -24.7168  255 255 255
12.3249 -2.80215 -29.6702  255 255 255
13.9608 1.28042 -31.4814  255 255 255
-6.08518 -6.96148 -24.1935  255 255 255
7.33918 8.80255 -41.6844  255 255 255
-0.991891 2.24879 -23.3433  255 255 255
-6.44179 14.0621 -40.3104  255 255 255
13.7851 0.0290077 -32.6322  255 255 255
-3.3805 -8.37169 -22.7344  255 255 255
-5.60644 11.6979 -43.1186  255 255 255
5.82502 10.7824 -43.8804  255 255 255
12.4965 -4.92389 -27.2071  255 255 255
-2.73626 10.4877 -43.1308  255 255 255
3.08283 0.346622 -21.9255  255 255 255
-2.95813 5.93133 -38.0853  255 255 255
1.28446 8.29104 -40.9435  255 255 255
-3.46738 -8.34677 -22.7071  255 255 255
14.0298 -6.28932 -25.6447  255 255 255
2.96282 0.66481 -21.8695  255 255 255
-12.9957 10.8219 -38.336  255 255 255
12.4026 5.86235 -31.9804  255 255 255
13.6094 1.77483 -31.8237  255 255 255
0.418633 1.09793 -22.0795  255 255 255
-0.551872 -2.41622 -21.6918  255 255 255
2.03491 0.837089 -21.7661  255 255 255
-12.8708 9.99854 -39.4567  255 255 255
-20.908 2.26977 -33.1645  255 255 255
-11.8545 3.74478 -35.5642  255 255 255
-14.356 5.98999 -37.8397  255 255 255
-14.0007 5.78739 -37.5934  255 255 255
-11.6021 11.5354 -38.2165  255 255 255
4.79246 0.775032 -22.8014  255 255 255
-13.9197 7.79158 -39.8441  255 255 255
-14.0261 12.2978 -36.1422  255 255 255
-4.2667 -7.5619 -23.5535  255 255 255
1.5729 1.33911 -21.834  255 255 255
-8.90583 10.4964 -41.0886  255 255 255
-13.7428 10.6398 -39.379  255 255 255
-1.42506 16.1486 -42.3742  255 255 255
5.12758 17.7477 -45.5337  255 255 255
-8.31633 11.3952 -41.7459  255 255 255
-8.58199 14.364 -38.2784  255 255 255
-12.859 12.5475 -36.6232  255 255 255
-2.05592 15.7501 -41.9347  255 255 255
-6.33149 14.0133 -40.4134  255 255 255
-10.968 1.361 -32.9083  255 255 255
-12.4255 3.82653 -35.512  255 255 255
-4.99642 -8.7612 -22.248  255 255 255
-5.45547 -7.4262 -23.6538  255 255 255
0.87913 2.45046 -22.4356  255 255 255
-2.42459 2.33928 -25.718  255 255 255
3.55046 0.173496 -22.0949  255 255 255
-1.40928 -1.05867 -22.6431  255 255 255
5.19668 -3.47002 -22.9617  255 255 255
6.09358 8.26727 -41.1321  255 255 255
-6.01441 7.68073 -40.0437  255 255 255
-6.24726 7.33516 -39.5738  255 255 255
4.20687 3.45245 -23.8582  255 255 255
2.11087 2.11353 -22.1161  255 255 255
3.20525 1.78702 -22.2118  255 255 255
3.20566 1.78571 -22.2182  255 255 255
6.37526 0.538948 -24.3755  255 255 255
6.16593 0.340351 -24.1383  255 255 255
3.37718 0.453689 -22.0132  255 255 255
-2.72913 0.337235 -24.0242  255 255 255
3.22917 -0.36982 -22.0301  255 255 255
0.295594 -1.35208 -21.8461  255 255 255
1.89962 -3.16594 -21.3699  255 255 255
13.746 -4.79699 -27.3645  255 255 255
-4.42896 8.12602 -40.4759  255 255 255
9.14702 7.13366 -40.0159  255 255 255
-6.05553 7.90732 -40.1161  255 255 255
8.52337 6.95331 -39.735  255 255 255
7.75584 6.77054 -39.5919  255 255 255
7.6991 6.53758 -39.3408  255 255 255
1.51901 4.46867 -24.8366  255 255 255
4.32924 2.86656 -23.3417  255 255 255
-13.1316 3.77764 -35.4339  255 255 255
7.7819 1.60707 -26.6836  255 255 255
-2.59804 2.095 -25.4712  255 255 255
3.16459 -0.79744 -22.153  255 255 255
2.60905 -1.51178 -21.8334  255 255 255
5.1121 -3.34405 -22.7963  255 255 255
-4.43702 -6.99434 -24.0991  255 255 255
-8.30798 -8.32388 -22.3596  255 255 255
1.80481 4.4472 -24.9786  255 255 255
4.82536 2.10588 -23.2259  255 255 255
4.93463 -1.05261 -22.6046  255 255 255
0.794438 -1.1129 -22.1509  255 255 255
4.15118 -2.32556 -22.0442  255 255 255
1.64369 -2.60273 -21.582  255 255 255
9.82459 -5.73834 -26.1905  255 255 255
-5.52789 -6.83348 -24.3661  255 255 255
4.03328 3.33666 -23.4831  255 255 255
-3.42006 2.31998 -26.66  255 255 255
4.22526 1.61725 -22.6301  255 255 255
3.11723 -1.37965 -22.0297  255 255 255
2.1219 -1.5234 -21.7599  255 255 255
-2.82031 -8.24154 -22.7615  255 255 255
-7.34054 2.07244 -33.7921  255 255 255
13.0703 -5.60241 -26.4248  255 255 255
-5.23253 -6.99521 -24.1224  255 255 255
5.45281 1.90093 -23.7308  255 255 255
-7.26377 1.78237 -33.4397  255 255 255
-4.22229 -8.69368 -22.3174  255 255 255
7.36595 -3.53535 -25.5979  255 255 255
-2.53751 -8.24166 -22.885  255 255 255
6.5727 -3.22408 -24.5063  255 255 255
-7.32992 -8.39563 -22.4273  255 255 255
2.97608 0.437702 -21.8712  255 255 255
-10.6227 1.30781 -32.8774  255 255 255
-9.75388 -1.2726 -30.0971  255 255 255
13.9062 3.05141 -30.2857  255 255 255
7.79219 0.40665 -25.3348  255 255 255
1.7377 -2.39823 -21.7846  255 255 255
9.11099 6.98848 -39.8992  255 255 255
6.21556 -3.97093 -24.6021  255 255 255
10.2896 -6.60087 -25.3238  255 255 255
5.00946 -2.92609 -22.3433  255 255 255
-4.14985 -1.99056 -26.39  255 255 255
-9.42178 -2.25638 -29.0676  255 255 255
-2.90864 -1.15947 -22.8179  255 255 255
-1.63777 -1.97476 -22.043  255 255 255
2.85599 -0.490182 -21.9589  255 255 255
6.54311 16.2557 -48.4472  255 255 255
-11.1177 1.3282 -32.9837  255 255 255
1.98815 -2.76195 -21.4286  255 255 255
-0.18941 -3.93971 -22.6751  255 255 255
0.0739808 -3.69454 -22.3963  255 255 255
3.50913 -2.98894 -21.29  255 255 255
-1.7441 -9.04942 -22.1147  255 255 255
-1.89551 -8.81477 -22.3199  255 255 255
0.563389 18.4355 -41.7985  255 255 255
-15.3421 1.46543 -32.8907  255 255 255
0.851421 4.0317 -24.3962  255 255 255
1.2792 1.286 -21.8875  255 255 255
1.69401 -0.101195 -21.7842  255 255 255
1.82719 -0.341745 -21.8123  255 255 255
1.88327 0.163626 -21.751  255 255 255
-1.80553 16.6893 -41.5684  255 255 255
12.6086 7.47258 -30.2725  255 255 255
3.51364 1.04479 -22.0718  255 255 255
1.06297 1.571 -21.9944  255 255 255
-2.56977 2.42299 -25.8405  255 255 255
12.9485 18.6197 -51.106  255 255 255
7.606 18.2385 -47.5173  255 255 255
5.02544 19.8661 -43.9513  255 255 255
-1.22247 -0.0103499 -23.0705  255 255 255
0.40311 0.567672 -22.0252  255 255 255
1.64321 1.20126 -21.8283  255 255 255
0.891244 0.881849 -21.9066  255 255 255
-9.15176 12.9834 -39.1765  255 255 255
-9.1689 13.182 -38.6153  255 255 255
5.00271 0.453524 -22.9449  255 255 255
4.53757 1.81248 -22.8723  255 255 255
5.32127 0.823207 -23.2262  255 255 255
5.6918 -1.723 -22.8102  255 255 255
3.94364 -4.61018 -23.2314  255 255 255
5.27643 1.69095 -23.4056  255 255 255
4.98883 1.74644 -23.1717  255 255 255
5.20724 2.08997 -23.544  255 255 255
4.66801 -2.63625 -21.8699  255 255 255
4.07657 1.89377 -22.6692  255 255 255
2.72335 1.89983 -22.1012  255 255 255
2.48816 1.19084 -21.8647  255 255 255
-6.45672 13.0183 -41.2507  255 255 255
3.15662 14.7453 -47.1525  255 255 255
13.6213 -0.365885 -32.1659  255 255 255
5.57841 -0.308654 -23.3628  255 255 255
-1.72262 -1.47796 -22.6111  255 255 255
-0.60172 15.6141 -43.753  255 255 255
-0.60172 15.6141 -43.753  255 255 255
12.2129 9.7916 -38.5187  255 255 255
2.86034 14.7005 -46.9687  255 255 255
7.07913 8.4701 -41.2437  255 255 255
8.58607 7.97154 -40.8115  255 255 255
12.9099 3.01043 -32.6036  255 255 255
13.4236 2.39761 -31.8533  255 255 255
12.8482 2.62459 -32.8857  255 255 255
13.9058 1.21724 -31.5079  255 255 255
12.9465 -0.258098 -32.3916  255 255 255
2.80522 0.70648 -21.8486  255 255 255
15.118 -2.04265 -30.4235  255 255 255
15.1662 -2.10664 -30.3445  255 255 255
2.40622 0.26207 -21.7633  255 255 255
6.64774 -0.960755 -23.702  255 255 255
-0.75287 0.649985 -22.6952  255 255 255
5.881 -1.63406 -22.896  255 255 255
5.62338 -1.64812 -22.8779  255 255 255
5.15288 -2.19734 -22.2728  255 255 255
-0.596332 -1.0239 -22.1237  255 255 255
-0.622403 -1.08438 -22.1266  255 255 255
0.253718 -1.3841 -21.7581  255 255 255
11.9626 -5.10773 -26.9787  255 255 255
10.0715 -6.15478 -25.7925  255 255 255
7.44897 -7.93861 -23.7481  255 255 255
1.99183 -8.93862 -22.4319  255 255 255
-2.26135 -8.11962 -23.0443  255 255 255
-4.86198 -7.85274 -23.2376  255 255 255
3.29735 15.0465 -47.1021  255 255 255
13.4095 12.2341 -45.7796  255 255 255
11.3391 10.966 -44.2973  255 255 255
12.8156 5.68585 -31.0636  255 255 255
-3.48907 8.36395 -40.8161  255 255 255
-9.40853 3.20665 -35.0953  255 255 255
14.9431 -4.928 -27.1943  255 255 255
14.2238 -5.28285 -26.9057  255 255 255
11.561 -5.7731 -26.2683  255 255 255
-0.425167 -3.39277 -22.3307  255 255 255
-5.51853 -7.01135 -24.058  255 255 255
-3.79664 14.7922 -41.5842  255 255 255
-0.160008 14.8784 -44.5027  255 255 255
12.9552 5.60645 -30.7101  255 255 255
13.1316 2.5987 -32.4072  255 255 255
-6.90699 2.1201 -34.149  255 255 255
3.05598 -1.51751 -21.8271  255 255 255
-2.82129 -0.706297 -23.4824  255 255 255
-1.40946 -1.66608 -22.3534  255 255 255
9.53382 -6.42998 -25.6156  255 255 255
1.40235 -9.0856 -22.1487  255 255 255
3.08869 15.0962 -46.7512  255 255 255
0.207942 3.12309 -23.1392  255 255 255
9.84213 -6.29587 -25.7247  255 255 255
8.80865 8.6391 -41.5413  255 255 255
-3.00254 6.56214 -38.8884  255 255 255
10.4489 -6.65107 -25.2537  255 255 255
12.8825 -5.27813 -26.8577  255 255 255
-5.14155 -7.64694 -23.4541  255 255 255
12.1225 -5.61631 -26.416  255 255 255
12.168 -5.76744 -25.9908  255 255 255
9.80135 -6.04664 -25.8912  255 255 255
-4.86137 -7.43303 -23.6793  255 255 255
13.0914 1.2177 -33.521  255 255 255
3.40952 -1.0215 -22.303  255 255 255
9.84579 -6.3018 -25.7477  255 255 255
-7.92503 14.0326 -39.2873  255 255 255
0.294869 -2.58527 -21.5097  255 255 255
13.0314 9.6414 -36.7601  255 255 255
0.0265093 1.47974 -22.309  255 255 255
-2.73771 -8.07406 -23.1696  255 255 255
6.45521 11.6619 -44.7979  255 255 255
2.01042 -1.32915 -21.9632  255 255 255
1.27073 9.28715 -41.9287  255 255 255
7.30765 -1.31713 -23.5621  255 255 255
13.8244 -5.3669 -26.8301  255 255 255
9.43105 -6.87673 -24.9887  255 255 255
-2.83613 -8.29586 -22.8098  255 255 255
-2.00279 -8.35795 -22.7021  255 255 255
-3.49318 -8.13322 -22.9857  255 255 255
-4.15089 -8.08614 -23.0099  255 255 255
-1.13551 -6.46837 -23.845  255 255 255
8.95687 8.04445 -41.1078  255 255 255
0.76582 -2.00722 -21.8916  255 255 255
0.0513464 -0.379965 -22.2381  255 255 255
14.6172 -5.44397 -26.6091  255 255 255
2.02418 -6.80309 -23.351  255 255 255
-5.51131 -7.40901 -23.7185  255 255 255
-7.69118 -3.43759 -27.852  255 255 255
-12.4184 10.7212 -38.3482  255 255 255
3.6201 15.6471 -46.5944  255 255 255
4.11823 17.6553 -43.8258  255 255 255
8.55412 18.4547 -47.9208  255 255 255
10.2001 20.8821 -47.047  255 255 255
11.221 19.9274 -48.7715  255 255 255
8.56154 18.4704 -47.9624  255 255 255
5.79447 1.38779 -24.0241  255 255 255
4.0245 -1.2391 -22.2647  255 255 255
3.75526 -1.32327 -22.1293  255 255 255
9.03419 20.7687 -46.2656  255 255 255
-3.4311 -8.59475 -22.5132  255 255 255
-3.78752 13.7236 -42.6952  255 255 255
11.6388 21.2975 -47.6797  255 255 255
11.3194 20.6158 -48.0489  255 255 255
12.2776 10.7859 -37.7709  255 255 255
13.8476 2.56493 -30.7941  255 255 255
-5.02998 12.1054 -43.3203  255 255 255
2.25999 18.6225 -42.8872  255 255 255
-3.76458 -8.19598 -22.8827  255 255 255
1.9143 -4.71274 -22.7083  255 255 255
7.43084 17.6685 -47.8652  255 255 255
-4.88702 11.7341 -43.6656  255 255 255
-0.154073 14.8871 -44.5584  255 255 255
-4.21869 -8.45712 -22.58  255 255 255
-4.40999 -7.36475 -23.7465  255 255 255
-2.53122 -8.20721 -22.9384  255 255 255
14.9794 -1.30264 -30.752  255 255 255
-3.7588 -7.84018 -23.2597  255 255 255
-3.67041 -8.00029 -23.0718  255 255 255
13.0185 0.919794 -33.4846  255 255 255
-2.40828 6.36196 -38.6453  255 255 255
-2.36345 2.90323 -26.3905  255 255 255
13.2186 0.72019 -33.1432  255 255 255
12.5148 3.91195 -33.0639  255 255 255
-15.3463 10.3605 -36.8605  255 255 255
4.82117 18.4596 -45.1708  255 255 255
7.95276 18.3288 -47.5778  255 255 255
13.6519 13.5086 -47.2413  255 255 255
11.8539 12.2696 -45.492  255 255 255
6.31754 11.2164 -44.3965  255 255 255
7.68841 9.45622 -42.4757  255 255 255
14.1849 19.4971 -51.2167  255 255 255
6.87066 8.78941 -41.7146  255 255 255
7.31166 18.6603 -47.0587  255 255 255
5.12758 17.7477 -45.5337  255 255 255
7.14791 12.5524 -45.9796  255 255 255
-6.58558 12.5549 -41.6975  255 255 255
9.23385 13.4138 -46.7763  255 255 255
6.21689 12.4964 -45.7539  255 255 255
7.08208 18.1342 -47.2797  255 255 255
6.21825 12.2086 -45.2984  255 255 255
-7.56422 14.8471 -38.6342  255 255 255
-13.9506 10.4945 -38.876  255 255 255
-13.0883 10.1941 -39.4659  255 255 255
6.15896 20.0307 -44.5932  255 255 255
5.4809 -2.3527 -22.155  255 255 255
-3.73384 -7.72539 -23.418  255 255 255
-5.38971 -6.78184 -24.3079  255 255 255
0.82001 1.52355 -22.0499  255 255 255
5.48577 0.404863 -23.4534  255 255 255
5.31799 2.92219 -24.5148  255 255 255
13.2168 1.14119 -33.4331  255 255 255
6.99072 -3.49884 -25.5176  255 255 255
-1.35373 -1.74516 -22.3208  255 255 255
-13.9843 5.68215 -37.5292  255 255 255
11.4963 -5.74421 -26.2817  255 255 255
3.6422 1.70443 -22.3883  255 255 255
3.59287 15.0385 -47.2656  255 255 255
5.50987 -4.75201 -24.0829  255 255 255
-3.60792 1.94664 -26.1989  255 255 255
13.2803 8.23199 -37.3551  255 255 255
-7.3909 -1.50668 -29.9493  255 255 255
13.1247 1.10414 -33.36  255 255 255
13.5209 -6.30608 -25.6915  255 255 255
3.52104 -2.90374 -21.3862  255 255 255
6.42863 13.3933 -46.843  255 255 255
5.61887 -2.45135 -22.1497  255 255 255
1.26897 2.21246 -22.2165  255 255 255
8.8043 -7.38346 -24.4375  255 255 255
-7.06657 12.9218 -40.7907  255 255 255
4.78958 -3.40174 -22.6117  255 255 255
-8.42146 13.1947 -39.4379  255 255 255
6.8844 -1.11733 -23.5844  255 255 255
12.4124 -5.40389 -26.7952  255 255 255
1.25127 1.89037 -22.0787  255 255 255
6.58412 12.7483 -45.9288  255 255 255
13.175 1.10678 -33.4866  255 255 255
6.64313 -2.36577 -23.7497  255 255 255
4.18297 2.81801 -23.1922  255 255 255
-7.71954 -1.85998 -29.5357  255 255 255
4.69425 -3.48182 -22.6344  255 255 255
1.18605 0.321541 -21.8153  255 255 255
-2.40846 3.20659 -26.7036  255 255 255
-8.82763 -2.31324 -29.0775  255 255 255
12.1684 -5.93147 -26.1102  255 255 255
13.6684 3.2066 -30.7521  255 255 255
12.5874 -6.01613 -26.0337  255 255 255
-5.72677 5.59624 -37.7139  255 255 255
-4.33644 -7.2798 -23.8788  255 255 255
12.9548 11.5751 -35.8747  255 255 255
12.8441 1.58744 -33.8496  255 255 255
12.7719 10.6297 -36.6639  255 255 255
1.49711 -2.66692 -21.4971  255 255 255
5.83213 0.631637 -23.9112  255 255 255
3.30929 -4.88136 -23.0526  255 255 255
1.15444 1.45312 -21.9501  255 255 255
1.24817 4.25048 -24.7632  255 255 255
12.8994 -6.53408 -25.4551  255 255 255
-3.90468 -7.99013 -23.1247  255 255 255
13.1802 3.62946 -31.5988  255 255 255
0.399377 7.2004 -39.6923  255 255 255
-12.4972 3.71807 -35.5257  255 255 255
5.06123 0.873324 -22.9742  255 255 255
4.94678 -0.168275 -22.8752  255 255 255
1.90093 3.60766 -23.561  255 255 255
5.30423 2.91365 -24.3821  255 255 255
3.64966 -2.84377 -21.4911  255 255 255
3.90439 -4.50429 -23.0491  255 255 255
-4.8387 -7.18884 -23.9149  255 255 255
1.01865 -0.648343 -21.9904  255 255 255
12.14 10.0763 -38.6775  255 255 255
-4.33183 -7.27635 -23.8559  255 255 255
-1.12141 3.53626 -24.5859  255 255 255
1.16229 1.91398 -22.1082  255 255 255
2.58751 1.57124 -21.9434  255 255 255
4.95248 -4.35286 -23.5653  255 255 255
-3.87829 -8.07322 -23.0112  255 255 255
3.15739 1.45019 -22.0947  255 255 255
4.98033 -4.7773 -23.9944  255 255 255
-4.95911 -7.15221 -23.5009  255 255 255
-3.08224 -1.11258 -23.0174  255 255 255
-5.71608 5.42502 -37.4714  255 255 255
-2.59519 -8.19368 -22.9402  255 255 255
-2.7917 2.4382 -25.8098  255 255 255
-3.89772 0.975961 -25.15  255 255 255
-3.79939 0.198016 -24.2308  255 255 255
2.85969 2.19853 -22.2677  255 255 255
-0.599796 2.43954 -23.1164  255 255 255
5.52463 -1.91578 -22.596  255 255 255
-3.51935 -8.04939 -22.9559  255 255 255
4.69222 1.81376 -23.0302  255 255 255
0.124594 1.65267 -22.2866  255 255 255
-12.2203 3.91818 -35.7948  255 255 255
4.46967 1.72991 -22.789  255 255 255
7.03972 -7.85116 -23.7692  255 255 255
7.70058 18.1781 -47.6053  255 255 255
7.70058 18.1781 -47.6053  255 255 255
7.55994 17.8126 -47.7589  255 255 255
13.6643 18.9329 -51.5358  255 255 255
4.07761 16.6536 -45.7298  255 255 255
7.04287 16.4738 -48.7552  255 255 255
-14.0347 10.558 -38.8514  255 255 255
-0.738084 3.81309 -24.4948  255 255 255
-2.6818 1.07403 -24.33  255 255 255
14.1941 0.496222 -31.1797  255 255 255
4.84175 -2.31313 -22.1348  255 255 255
13.2187 -4.34419 -27.817  255 255 255
14.0027 -6.21774 -25.804  255 255 255
4.89754 17.4033 -46.0579  255 255 255
13.7189 19.3345 -50.9969  255 255 255
-2.26087 15.621 -41.9694  255 255 255
-0.683054 15.7007 -43.3152  255 255 255
6.4559 16.7672 -47.7999  255 255 255
2.75782 15.8442 -45.7731  255 255 255
6.79892 15.7158 -49.0863  255 255 255
1.12025 7.41317 -39.9602  255 255 255
8.10691 6.60005 -39.1591  255 255 255
-13.4043 4.70991 -36.5467  255 255 255
-11.7393 3.54787 -35.1743  255 255 255
2.91786 2.17646 -22.253  255 255 255
13.4808 0.862273 -32.696  255 255 255
9.58831 -4.30293 -27.4649  255 255 255
12.5183 -5.08862 -26.9865  255 255 255
14.6014 -5.4058 -26.7123  255 255 255
8.15765 -7.72817 -23.9781  255 255 255
