ply
format ascii 1.0
element vertex 1255
property float x
property float y
property float z
property uchar red
property uchar green
property uchar blue
end_header
-16.0491 70.8752 -41.0725  255 255 255
53.46 25.7742 13.9636  255 255 255
52.4508 25.18 14.9381  255 255 255
-32.9165 65.9576 -32.8561  255 255 255
-44.7905 63.2164 -27.2661  255 255 255
-62.4082 57.8182 -16.7751  255 255 255
-25.9049 67.5515 -37.0046  255 255 255
-25.2912 66.9095 -38.0009  255 255 255
50.0567 27.8602 7.69333  255 255 255
53.8262 22.7093 13.6399  255 255 255
53.8262 22.7093 13.6399  255 255 255
-41.7294 60.4478 -27.7236  255 255 255
-44.8044 60.7457 -28.5526  255 255 255
22.5737 78.3276 -67.3242  255 255 255
21.0208 76.23 -63.9533  255 255 255
21.0573 76.293 -64.0846  255 255 255
54.1287 21.6348 12.7689  255 255 255
-51.6433 58.8063 -25.8122  255 255 255
66.5808 87.0137 -88.2202  255 255 255
77.1154 89.0083 -93.5029  255 255 255
-62.5452 55.602 -20.0265  255 255 255
-64.6791 54.7697 -18.9584  255 255 255
-64.6791 54.7697 -18.9584  255 255 255
-19.6787 65.949 -44.563  255 255 255
56.5756 35.5262 -10.9966  255 255 255
-52.453 57.1967 -26.2145  255 255 255
-55.3179 56.1314 -25.2516  255 255 255
-49.9323 57.1765 -28.1158  255 255 255
-59.029 55.0479 -23.2819  255 255 255
-6.54889 66.7611 -52.2882  255 255 255
-56.7697 54.8482 -25.1471  255 255 255
33.8298 74.5017 -75.4948  255 255 255
-56.8143 53.9526 -25.6084  255 255 255
57.0735 14.5001 15.1017  255 255 255
52.4668 37.7491 -21.8595  255 255 255
52.3164 37.5752 -21.6595  255 255 255
-4.35955 64.8413 -55.3518  255 255 255
70.5151 82.2351 -97.3135  255 255 255
77.7044 82.4988 -100.371  255 255 255
74.6489 81.5621 -99.496  255 255 255
52.9771 34.7789 -21.3184  255 255 255
49.7289 20.663 0.949639  255 255 255
54.6021 14.9962 9.02286  255 255 255
51.9169 35.3496 -24.967  255 255 255
53.2383 32.8651 -21.2476  255 255 255
-0.0531308 61.0485 -62.4203  255 255 255
-2.62043 59.9699 -61.3407  255 255 255
65.3545 0.0226389 24.8685  255 255 255
17.1215 62.0941 -71.9721  255 255 255
15.8477 61.6752 -71.5327  255 255 255
17.813 61.7814 -74.2317  255 255 255
52.2128 13.0125 1.61057  255 255 255
54.5816 9.95097 5.10201  255 255 255
56.975 20.5349 -17.8608  255 255 255
-59.8104 42.9758 -29.0167  255 255 255
-15.6664 51.5874 -57.4795  255 255 255
40.3647 62.3682 -91.9907  255 255 255
-57.1759 44.5392 -34.0061  255 255 255
35.7575 60.7509 -89.3804  255 255 255
54.868 23.4164 -26.1825  255 255 255
55.2529 6.38473 4.61563  255 255 255
66.3637 -5.76708 23.0891  255 255 255
66.3637 -5.76708 23.0891  255 255 255
53.2674 23.529 -29.7404  255 255 255
50.2528 10.9784 -5.20354  255 255 255
57.1817 3.15833 6.28813  255 255 255
55.7887 20.0528 -26.0091  255 255 255
-20.8905 47.5949 -56.3891  255 255 255
51.17 8.67696 -4.04001  255 255 255
60.2676 -1.20788 10.8534  255 255 255
-56.575 40.8921 -37.7443  255 255 255
-56.58 40.9197 -37.7677  255 255 255
51.7985 5.85184 -4.92261  255 255 255
-8.36387 46.8816 -69.3043  255 255 255
-58.8676 39.0791 -37.7067  255 255 255
51.2571 5.57978 -6.79306  255 255 255
51.3431 5.60116 -6.88967  255 255 255
-49.7449 40.1503 -43.7386  255 255 255
58.6097 -2.55145 5.20212  255 255 255
-53.8197 38.0808 -42.4514  255 255 255
18.8 45.0363 -82.0844  255 255 255
24.2923 40.9357 -75.8737  255 255 255
-13.7332 42.0738 -65.8101  255 255 255
56.2782 -1.77312 0.441172  255 255 255
63.2353 -8.76733 11.8229  255 255 255
16.7468 40.1126 -74.5831  255 255 255
63.9766 -9.80732 12.8674  255 255 255
63.3107 -9.92854 11.0735  255 255 255
59.2932 -6.60166 4.02038  255 255 255
58.1902 -6.17522 1.68192  255 255 255
-12.4802 40.1971 -72.3591  255 255 255
60.9644 -8.97487 6.37603  255 255 255
60.9607 -8.9706 6.37788  255 255 255
-38.0524 36.6663 -55.6086  255 255 255
-13.294 -4.19215 22.5947  255 255 255
-13.278 -4.17513 22.5531  255 255 255
-10.8421 -6.77766 26.7012  255 255 255
9.53428 -12.7818 32.1216  255 255 255
5.05229 32.6471 -66.219  255 255 255
61.5975 -11.3117 6.04333  255 255 255
58.4258 -8.40736 0.187609  255 255 255
65.8869 -15.5324 12.9379  255 255 255
3.41663 -13.7803 33.072  255 255 255
-11.3221 -9.10399 27.6321  255 255 255
62.5995 -12.9884 6.87189  255 255 255
-13.9879 -1.02526 9.58374  255 255 255
-12.4749 -8.80528 26.3562  255 255 255
-12.448 -8.79399 26.3001  255 255 255
4.71828 -15.4561 32.4037  255 255 255
5.7981 -16.6393 34.0246  255 255 255
64.4372 -16.479 8.45063  255 255 255
-12.4233 -10.5288 27.1136  255 255 255
-12.431 -10.5337 27.1153  255 255 255
3.1546 -16.7446 33.5743  255 255 255
-15.874 -7.79174 20.7043  255 255 255
60.0497 -13.4997 0.409585  255 255 255
59.9887 -13.5045 0.489042  255 255 255
-19.0294 -0.962097 4.50468  255 255 255
58.8416 -13.8416 -2.95433  255 255 255
-6.83056 -15.855 31.3925  255 255 255
-10.5983 -14.7078 29.4038  255 255 255
-9.20352 -15.5403 30.3264  255 255 255
62.1201 -19.315 0.697616  255 255 255
62.0059 -19.3443 0.828269  255 255 255
-23.2854 -6.26094 9.91382  255 255 255
64.9764 -21.8638 4.8815  255 255 255
-25.5248 -7.72018 13.3574  255 255 255
-0.379474 -20.2733 32.8974  255 255 255
-13.2382 -15.8955 27.058  255 255 255
-13.2265 -15.8862 27.0353  255 255 255
61.6405 -20.523 -1.54337  255 255 255
61.6586 -20.487 -1.58798  255 255 255
-24.0672 -9.17793 13.8387  255 255 255
-24.0942 -9.12093 13.8326  255 255 255
-10.5106 -17.8532 29.2177  255 255 255
-20.1234 -13.3966 21.573  255 255 255
63.9798 -23.3898 1.03055  255 255 255
-23.423 -11.2774 16.4318  255 255 255
-19.1423 -15.0055 23.1032  255 255 255
62.4396 -23.1667 -1.74441  255 255 255
-23.7602 -17.3057 22.9186  255 255 255
-14.1746 -21.4997 28.9071  255 255 255
-26.8617 -16.3316 21.0911  255 255 255
-24.8199 -17.202 21.3947  255 255 255
-6.14943 -25.5918 32.193  255 255 255
15.3642 -30.2762 30.3722  255 255 255
66.8115 -32.5452 1.13649  255 255 255
-25.9428 -17.9556 20.3555  255 255 255
14.5421 -30.3635 30.2181  255 255 255
-22.5802 -21.1304 23.968  255 255 255
3.3897 -31.6614 35.4601  255 255 255
7.3332 -32.1805 33.4919  255 255 255
13.6984 -33.199 28.5816  255 255 255
16.2688 -33.6147 26.9188  255 255 255
-32.2743 -9.72534 -19.5156  255 255 255
-41.2498 -7.1228 -22.0344  255 255 255
-31.4249 -10.5361 -18.7556  255 255 255
-34.9962 -10.3827 -19.0318  255 255 255
-14.2389 -28.8105 29.9989  255 255 255
-9.88119 -30.4604 32.103  255 255 255
-54.5381 -6.58263 -22.1076  255 255 255
7.64171 -35.366 30.8167  255 255 255
-23.6871 -24.5453 18.593  255 255 255
-43.6605 -12.6022 -15.8997  255 255 255
-41.9203 -13.3243 -15.7917  255 255 255
-1.15297 -35.1935 31.534  255 255 255
-37.3481 -16.5439 -11.6041  255 255 255
-22.0181 -28.2587 19.1833  255 255 255
-8.88984 -34.8649 28.6867  255 255 255
-42.358 -18.0063 -10.3618  255 255 255
-0.0481737 -37.9015 29.0248  255 255 255
-48.7492 -16.7365 -10.9722  255 255 255
-9.70509 -36.3133 26.7267  255 255 255
-43.4838 -20.499 -7.49934  255 255 255
-3.33593 -38.7746 28.014  255 255 255
-56.7182 -18.083 -9.44975  255 255 255
-9.84946 -37.1276 26.3699  255 255 255
-53.822 -19.2464 -7.88276  255 255 255
-42.823 -23.6479 -4.0324  255 255 255
-39.7994 -24.6399 -3.07413  255 255 255
-48.5329 -22.7126 -4.831  255 255 255
-57.3752 -21.9188 -5.60207  255 255 255
-43.7572 -27.997 0.73288  255 255 255
-40.9436 -29.33 2.02326  255 255 255
-45.6217 -29.7646 2.93081  255 255 255
7.54663 -50.6429 27.0331  255 255 255
-50.3061 -33.2396 8.46254  255 255 255
16.1806 -57.4673 32.9605  255 255 255
16.2306 -57.5221 30.7919  255 255 255
0.580692 -54.5894 28.1811  255 255 255
5.57677 -55.8782 25.3148  255 255 255
6.16312 93.7294 -35.7883  255 255 255
11.5794 94.1831 -41.0346  255 255 255
50.1327 105.869 -58.8387  255 255 255
51.5399 58.4028 -6.4895  255 255 255
-12.4464 83.2167 -33.04  255 255 255
-45.9701 71.4252 -17.3534  255 255 255
24.6994 91.9976 -53.0572  255 255 255
-50.3032 68.7688 -16.591  255 255 255
-45.9858 70.6678 -19.4608  255 255 255
-36.5288 72.3532 -23.8832  255 255 255
22.9995 89.989 -54.8831  255 255 255
31.5756 91.2845 -59.4419  255 255 255
55.9503 27.9118 22.3512  255 255 255
-50.0081 67.5258 -18.8427  255 255 255
-27.0171 73.1373 -31.3662  255 255 255
55.1261 27.9569 20.3928  255 255 255
-50.742 66.3935 -19.4117  255 255 255
-54.4208 65.1999 -17.4363  255 255 255
-51.3372 65.4107 -19.9178  255 255 255
92.1238 104.823 -91.9897  255 255 255
53.8974 26.0417 15.8889  255 255 255
51.9908 46.3516 -15.9315  255 255 255
-54.7344 60.3368 -21.6537  255 255 255
-16.5647 69.7881 -42.1741  255 255 255
-18.7641 66.2916 -42.5126  255 255 255
-55.6243 56.661 -23.8247  255 255 255
-65.7072 53.2353 -19.1625  255 255 255
58.0982 32.4348 -10.4812  255 255 255
-49.2816 56.5689 -29.3323  255 255 255
56.5961 10.0259 24.0582  255 255 255
-65.1245 53.6022 -21.9228  255 255 255
56.0861 79.6718 -86.4663  255 255 255
4.57464 67.8311 -59.6218  255 255 255
57.5384 13.7918 16.0169  255 255 255
59.9716 77.929 -91.237  255 255 255
20.8281 68.4259 -71.475  255 255 255
52.1499 16.9359 5.13885  255 255 255
58.6021 9.91145 14.8573  255 255 255
48.8442 17.832 -1.91057  255 255 255
54.746 10.67 6.11442  255 255 255
57.4957 7.52516 10.5529  255 255 255
8.54577 58.8472 -68.2507  255 255 255
5.95126 58.0065 -67.5267  255 255 255
49.4086 13.7976 -4.82019  255 255 255
58.4466 3.7379 11.6469  255 255 255
13.8674 58.0998 -75.5208  255 255 255
14.8176 56.8125 -75.9293  255 255 255
-1.78144 53.7451 -66.5013  255 255 255
13.6839 56.2077 -77.163  255 255 255
56.0299 18.8949 -26.5619  255 255 255
-36.7815 45.1837 -50.015  255 255 255
-3.59353 1.50448 22.1011  255 255 255
-13.2821 48.2939 -64.9026  255 255 255
9.17487 -1.58821 22.8442  255 255 255
-6.20955 -7.86317 30.4627  255 255 255
72.5697 -11.4759 10.2972  255 255 255
65.3676 -12.523 13.429  255 255 255
65.4608 -12.5186 13.3226  255 255 255
-6.8029 -9.52496 30.9156  255 255 255
-13.9095 -5.80582 23.2818  255 255 255
-13.8935 -5.79137 23.2418  255 255 255
11.513 -16.9214 30.3296  255 255 255
57.6667 -11.0275 -3.95125  255 255 255
-35.6146 30.2684 -61.46  255 255 255
65.4394 -19.4602 8.05205  255 255 255
63.3655 -17.7402 4.71244  255 255 255
-12.8186 -12.7983 27.4486  255 255 255
-12.7778 -12.7894 27.386  255 255 255
26.0421 -22.4824 26.1486  255 255 255
61.6224 -19.6113 -0.603552  255 255 255
-23.0639 -8.19451 12.5458  255 255 255
-23.0639 -8.19451 12.5458  255 255 255
67.1351 -25.2083 8.7333  255 255 255
-25.9205 -8.69914 13.1885  255 255 255
19.0137 -27.8546 32.1399  255 255 255
-25.4096 -14.0176 9.53094  255 255 255
-23.559 -19.1559 23.1744  255 255 255
-21.1035 -21.1058 27.0226  255 255 255
-23.2383 -20.1121 22.8766  255 255 255
-21.3179 -23.2437 28.2033  255 255 255
8.05666 -32.2509 34.9265  255 255 255
-25.5155 -17.6772 12.2092  255 255 255
-15.5135 -26.3583 30.639  255 255 255
-33.9991 -8.86864 -20.6914  255 255 255
-25.504 -23.7526 14.9918  255 255 255
-37.6418 -13.234 -15.2963  255 255 255
-21.552 -26.8975 22.3853  255 255 255
-13.6641 -31.3178 28.5391  255 255 255
-23.5821 -25.8027 16.3306  255 255 255
38.1318 -40.8026 12.2432  255 255 255
-15.158 -32.7019 25.7382  255 255 255
1.95193 -38.6955 28.3473  255 255 255
-52.6554 -22.7909 -4.48495  255 255 255
-52.6115 -22.8142 -4.95427  255 255 255
-3.77873 -41.0119 26.0465  255 255 255
-52.2899 -27.6051 0.0438465  255 255 255
11.5574 -50.5115 26.3774  255 255 255
-48.4163 -34.2035 7.57842  255 255 255
4.55694 -53.1485 27.862  255 255 255
10.0186 -61.6672 35.7306  255 255 255
1.89673 -59.7387 33.8561  255 255 255
3.15731 -60.1627 33.9179  255 255 255
-3.46658 89.1314 -32.5125  255 255 255
30.4966 98.9798 -50.5153  255 255 255
7.26259 90.5628 -40.6176  255 255 255
50.1602 37.6487 16.5435  255 255 255
50.9504 58.6386 -10.8562  255 255 255
-35.0598 72.5077 -23.4993  255 255 255
50.9283 55.2838 -13.5537  255 255 255
-2.94512 80.9919 -42.5031  255 255 255
1.22583 80.7599 -45.318  255 255 255
23.5698 86.1472 -56.9632  255 255 255
41.1045 88.9941 -68.2547  255 255 255
56.9415 39.0175 -4.44668  255 255 255
50.1679 28.8056 8.7946  255 255 255
-32.3253 64.3707 -33.3751  255 255 255
51.3411 25.9036 9.8334  255 255 255
52.1067 24.9326 10.8404  255 255 255
49.9381 23.9989 4.67481  255 255 255
29.9283 75.2055 -72.0498  255 255 255
58.7409 11.4285 16.2772  255 255 255
52.4897 34.7059 -22.6285  255 255 255
52.4897 34.7059 -22.6285  255 255 255
24.7602 66.3546 -75.1256  255 255 255
50.4182 70.2602 -91.7583  255 255 255
49.0113 15.2554 -2.20312  255 255 255
56.6236 23.3395 -22.71  255 255 255
59.1739 1.96924 11.3985  255 255 255
48.7712 61.6781 -97.3321  255 255 255
54.2086 7.01099 2.48539  255 255 255
54.2086 7.01099 2.48539  255 255 255
-22.368 47.8847 -55.676  255 255 255
22.7789 54.0814 -86.6569  255 255 255
19.8642 52.7761 -85.0655  255 255 255
-11.0564 -0.179665 23.0091  255 255 255
-11.9008 44.0774 -66.139  255 255 255
-12.456 43.2387 -63.8867  255 255 255
50.7828 3.32211 -9.85307  255 255 255
-9.14238 -6.1892 27.8516  255 255 255
53.4213 -1.73898 -7.19116  255 255 255
66.7621 -11.2344 8.85595  255 255 255
-17.0802 -1.95198 9.80318  255 255 255
-15.5556 -2.91645 11.0563  255 255 255
63.3112 -15.8766 6.30735  255 255 255
63.2313 -15.9028 6.38883  255 255 255
63.1158 -18.9864 4.13363  255 255 255
-15.5014 -11.8151 23.9805  255 255 255
-14.7244 -12.7124 25.0388  255 255 255
24.0914 -23.5987 27.3061  255 255 255
67.5548 -26.4159 5.4097  255 255 255
69.5427 -24.4622 -2.62774  255 255 255
-24.358 -18.8451 21.5474  255 255 255
-21.8418 -22.8077 24.4163  255 255 255
-23.1145 -21.9048 21.8131  255 255 255
-3.15876 -33.7537 32.9027  255 255 255
13.2763 -36.245 26.4293  255 255 255
-35.6773 -13.6867 -14.5704  255 255 255
9.02017 -37.3741 28.7427  255 255 255
-2.65589 -35.6164 32.3341  255 255 255
-22.5118 -26.6656 16.4611  255 255 255
-24.788 -26.0183 13.3956  255 255 255
-47.7229 -14.8103 -13.3589  255 255 255
-16.5942 -31.7178 24.608  255 255 255
-6.13594 -36.6126 28.1329  255 255 255
0.833612 -39.3308 27.5696  255 255 255
-13.916 -37.2631 24.9085  255 255 255
-43.2084 -25.6772 -2.47045  255 255 255
-42.3354 -28.4881 1.11516  255 255 255
17.3771 -49.7913 23.773  255 255 255
5.3493 -47.7534 25.6324  255 255 255
9.48214 -54.0516 27.5275  255 255 255
9.48214 -54.0516 27.5275  255 255 255
51.2486 35.7022 15.5501  255 255 255
-6.83468 79.6677 -40.2809  255 255 255
27.7438 89.9971 -58.277  255 255 255
24.5569 89.1088 -56.9787  255 255 255
6.319 82.1824 -47.5332  255 255 255
27.0468 86.3919 -59.6412  255 255 255
26.8801 86.1554 -59.2198  255 255 255
59.0928 20.6016 23.5132  255 255 255
87.3498 98.5739 -90.6753  255 255 255
-14.6891 70.536 -43.3631  255 255 255
-19.5095 67.8671 -41.4282  255 255 255
50.6721 42.1264 -22.1748  255 255 255
58.0945 82.4943 -86.2117  255 255 255
-3.63053 65.8223 -54.5319  255 255 255
58.6864 31.7793 -13.4674  255 255 255
58.7258 29.4346 -11.6013  255 255 255
22.4742 67.9133 -74.8122  255 255 255
-19.6475 55.305 -53.2734  255 255 255
58.6894 -3.18718 18.5591  255 255 255
62.3321 -2.10168 15.4282  255 255 255
65.3214 -8.40242 18.6289  255 255 255
-9.10631 45.2917 -71.6097  255 255 255
60.4496 -6.80407 6.96913  255 255 255
1.66116 -13.961 33.1771  255 255 255
99.4878 -13.0788 -14.3917  255 255 255
-13.9516 -12.2211 27.4126  255 255 255
-18.7806 -6.92624 15.2723  255 255 255
-1.25075 -19.3655 32.8203  255 255 255
64.4183 -22.5898 3.80171  255 255 255
64.8772 -28.1442 1.32361  255 255 255
66.6328 -30.5419 3.98434  255 255 255
-25.3899 -16.8355 20.3118  255 255 255
-11.8421 -30.7686 32.3421  255 255 255
6.48866 -36.5539 29.4321  255 255 255
12.1566 -37.7257 26.3514  255 255 255
-3.70117 -40.0051 27.441  255 255 255
-13.0339 -37.6101 25.1174  255 255 255
-13.0456 -37.6063 25.1843  255 255 255
-13.4196 -39.6959 24.1096  255 255 255
21.2757 -49.4806 23.2734  255 255 255
18.395 -50.0074 25.0238  255 255 255
-35.4323 -33.4807 8.34642  255 255 255
-28.9078 -42.6696 18.1075  255 255 255
-6.71869 84.643 -36.1952  255 255 255
52.4456 55.9011 -8.38743  255 255 255
57.0089 38.5351 0.040282  255 255 255
26.5501 77.7604 -67.183  255 255 255
26.5281 77.6991 -67.1015  255 255 255
61.0537 81.4877 -91.1945  255 255 255
-65.9857 51.0914 -20.2561  255 255 255
27.1796 72.2901 -73.7563  255 255 255
29.993 70.745 -76.0462  255 255 255
-3.54315 54.8317 -62.4128  255 255 255
-5.71834 1.1079 23.6066  255 255 255
-13.1267 45.6524 -64.415  255 255 255
-3.19802 46.8738 -73.7538  255 255 255
-10.6732 -10.5437 28.6822  255 255 255
61.3668 -12.7979 2.96051  255 255 255
-20.536 -22.1692 27.89  255 255 255
-12.2096 -27.2855 33.5859  255 255 255
-22.1915 -26.9343 20.4884  255 255 255
-13.3603 -32.138 28.5048  255 255 255
-11.3359 -34.0698 28.4595  255 255 255
-17.5681 -32.2148 23.715  255 255 255
2.77422 -45.8971 26.7606  255 255 255
15.2581 95.508 -43.5435  255 255 255
-1.70063 88.9206 -35.1529  255 255 255
-6.32172 86.3624 -33.5662  255 255 255
18.6544 83.2692 -54.2509  255 255 255
19.7424 85.21 -56.9139  255 255 255
63.2633 74.3212 -95.9986  255 255 255
56.3356 27.2227 -19.9508  255 255 255
6.91947 54.2039 -74.2392  255 255 255
-2.56321 -6.63318 30.4308  255 255 255
-21.0637 -25.5452 21.913  255 255 255
15.1349 -46.4203 22.7849  255 255 255
15.1349 -46.4203 22.7849  255 255 255
19.8815 95.25 -46.2943  255 255 255
3.53112 89.3623 -39.1079  255 255 255
3.52881 89.367 -39.1028  255 255 255
-27.9388 75.7219 -25.3271  255 255 255
22.5673 93.0079 -52.5606  255 255 255
55.4634 43.6584 4.83125  255 255 255
2.66231 78.018 -47.5207  255 255 255
2.56055 74.3214 -52.2479  255 255 255
2.47199 74.1933 -51.938  255 255 255
-23.1612 -20.3239 23.5161  255 255 255
1.77442 -35.8681 30.7742  255 255 255
-1.31458 -37.5522 29.3709  255 255 255
9.52394 -44.389 28.9232  255 255 255
3.75419 85.8853 -42.7792  255 255 255
54.2373 53.6266 -7.32001  255 255 255
54.8969 44.2447 -10.6252  255 255 255
20.4541 76.703 -66.6924  255 255 255
-16.9575 63.7503 -47.6927  255 255 255
40.641 66.4794 -88.9047  255 255 255
52.9061 67.3508 -95.8184  255 255 255
2.7826 54.0459 -76.1956  255 255 255
1.23995 47.47 -74.6552  255 255 255
-24.1798 42.6261 -61.043  255 255 255
-15.4248 -12.5063 24.0461  255 255 255
-19.9829 -12.1465 21.3694  255 255 255
-23.4004 -17.8339 24.1108  255 255 255
9.78475 -41.9018 27.9292  255 255 255
54.5719 87.7388 -82.015  255 255 255
-19.9594 51.6111 -53.7808  255 255 255
-8.23537 46.1403 -68.0182  255 255 255
-8.19492 46.3614 -68.4528  255 255 255
-11.5041 55.2551 -59.2157  255 255 255
13.4481 76.5384 -65.6531  255 255 255
-17.1465 118.952 -31.091  255 255 255
20.4225 133.56 -45.0114  255 255 255
18.5609 132.837 -45.0581  255 255 255
20.702 132.941 -45.6793  255 255 255
19.2813 132.501 -46.2596  255 255 255
18.6409 130.861 -47.0398  255 255 255
106.703 225.441 -156.643  255 255 255
19.547 118.582 -48.5864  255 255 255
-20.5208 93.1944 -30.7697  255 255 255
41.627 103.63 -52.8654  255 255 255
30.416 99.294 -50.4149  255 255 255
12.6614 93.3572 -42.477  255 255 255
-2.29285 86.0788 -37.7672  255 255 255
49.8554 60.9497 -10.145  255 255 255
-6.79489 84.5931 -35.8332  255 255 255
54.6282 53.9811 -2.07782  255 255 255
-0.713288 84.7193 -40.0087  255 255 255
50.5672 36.747 17.0877  255 255 255
10.7261 87.7255 -45.2973  255 255 255
57.1753 49.7851 -0.580919  255 255 255
53.7608 34.0248 19.8046  255 255 255
49.9561 58.6894 -12.8539  255 255 255
91.0148 109.835 -83.785  255 255 255
44.4478 99.8384 -68.4608  255 255 255
50.5905 35.3947 12.8451  255 255 255
-10.4498 78.6275 -38.4165  255 255 255
48.7728 95.8905 -66.7441  255 255 255
56.1865 27.2829 22.5905  255 255 255
-48.1042 67.1251 -20.1299  255 255 255
39.8826 92.6513 -63.0719  255 255 255
50.348 54.9794 -14.2513  255 255 255
38.1251 92.3975 -62.7864  255 255 255
-46.8262 66.6144 -21.3456  255 255 255
52.3787 51.3718 -12.0019  255 255 255
53.18 29.3146 17.0487  255 255 255
43.8576 92.0443 -66.4104  255 255 255
27.5319 87.4928 -59.2067  255 255 255
-24.7883 72.0674 -33.4161  255 255 255
56.2102 45.3113 -6.56063  255 255 255
56.2102 45.3113 -6.56063  255 255 255
-2.52359 77.1669 -45.6769  255 255 255
51.1834 30.0695 12.5566  255 255 255
52.9784 28.3411 14.5607  255 255 255
32.455 86.7756 -63.3771  255 255 255
51.7996 48.5685 -15.4072  255 255 255
54.9477 24.1207 16.9993  255 255 255
-43.7101 63.7645 -26.1362  255 255 255
23.8606 82.1519 -61.393  255 255 255
33.0959 84.1999 -65.7909  255 255 255
27.1511 82.1518 -62.9917  255 255 255
54.3905 42.9876 -12.688  255 255 255
-37.8481 63.673 -30.9001  255 255 255
-37.8566 63.711 -30.8575  255 255 255
59.9991 87.7899 -81.782  255 255 255
54.8734 21.162 14.4289  255 255 255
-25.1644 65.5772 -39.1377  255 255 255
58.8127 15.5661 20.211  255 255 255
18.8006 76.0103 -62.8801  255 255 255
57.7747 35.2903 -9.32027  255 255 255
59.0932 14.5868 19.9258  255 255 255
2.59915 71.1061 -55.1664  255 255 255
-21.2509 64.8387 -42.3358  255 255 255
56.2736 36.955 -13.5082  255 255 255
85.3105 90.6786 -98.8036  255 255 255
65.1183 83.8739 -89.1782  255 255 255
41.8638 78.9421 -78.1121  255 255 255
56.062 16.1365 13.9093  255 255 255
10.4717 69.941 -61.754  255 255 255
54.4918 17.2994 10.9637  255 255 255
54.1891 17.1011 11.263  255 255 255
57.8241 30.8327 -11.3869  255 255 255
51.0814 39.3057 -23.8074  255 255 255
42.7703 75.8314 -80.8953  255 255 255
56.8842 12.7294 12.8755  255 255 255
51.8708 16.9615 3.98606  255 255 255
53.2956 32.3979 -22.8472  255 255 255
54.0503 31.3198 -21.7288  255 255 255
58.3268 7.22025 12.7885  255 255 255
54.6726 27.7568 -22.6152  255 255 255
51.1351 31.9646 -29.2645  255 255 255
51.4269 32.178 -29.6684  255 255 255
53.5029 11.3676 3.65527  255 255 255
44.1486 67.6645 -89.8267  255 255 255
51.227 12.9034 -0.908645  255 255 255
23.3397 62.5956 -78.9359  255 255 255
56.8185 22.3115 -19.452  255 255 255
-19.1178 53.4553 -54.6276  255 255 255
51.8965 28.1961 -29.64  255 255 255
53.6127 9.21806 2.34298  255 255 255
53.4141 9.47762 1.93923  255 255 255
54.8833 24.4583 -24.8685  255 255 255
52.8166 9.60658 0.698591  255 255 255
52.7679 9.60312 0.748213  255 255 255
58.432 3.221 9.93854  255 255 255
57.1888 3.68499 6.89492  255 255 255
33.8584 60.4438 -87.3731  255 255 255
61.5547 -1.33062 13.599  255 255 255
27.8738 58.7276 -85.2465  255 255 255
56.2776 19.9821 -24.9027  255 255 255
60.8446 -2.37163 11.2025  255 255 255
-7.46684 51.0393 -66.0128  255 255 255
61.9713 -3.90304 12.7947  255 255 255
64.2548 -5.90609 15.5991  255 255 255
62.0832 -4.24938 13.1172  255 255 255
53.0199 5.16499 -1.81777  255 255 255
52.9605 5.11196 -2.23624  255 255 255
60.6928 -3.11548 10.2466  255 255 255
54.7615 2.98655 0.481864  255 255 255
59.0212 -2.48008 7.41642  255 255 255
53.1895 3.27776 -3.31982  255 255 255
60.8427 -5.08768 9.1824  255 255 255
58.1526 -2.50682 4.63098  255 255 255
58.202 -2.75626 4.74548  255 255 255
56.1442 -0.745153 0.978602  255 255 255
-6.51421 47.191 -70.1089  255 255 255
-6.51421 47.191 -70.1089  255 255 255
68.7034 -15.1433 21.8304  255 255 255
62.668 -8.82009 11.0467  255 255 255
9.15897 48.0519 -81.263  255 255 255
-4.31043 45.8768 -72.7221  255 255 255
60.4832 -6.85063 7.01  255 255 255
55.7941 -1.82738 -1.07453  255 255 255
55.7878 -1.82262 -1.07274  255 255 255
58.9661 -4.93935 3.16571  255 255 255
69.8246 -17.4248 22.5388  255 255 255
4.34096 45.7386 -79.103  255 255 255
57.8608 -5.33249 1.70786  255 255 255
-8.18718 -6.64844 28.5551  255 255 255
-9.71408 -5.921 27.1009  255 255 255
59.3673 -7.3552 3.7107  255 255 255
57.7706 -5.8584 0.830524  255 255 255
61.0034 -9.5321 6.0303  255 255 255
69.9004 -19.1515 21.7729  255 255 255
61.9183 -10.5681 7.70283  255 255 255
61.1754 -9.91297 6.20051  255 255 255
-5.26452 -9.79381 31.5665  255 255 255
60.4097 -9.4122 4.56782  255 255 255
60.3951 -9.52742 4.23807  255 255 255
1.58675 -12.603 33.2925  255 255 255
58.9256 -8.49934 1.58009  255 255 255
8.35976 -13.6261 31.9588  255 255 255
70.8563 -21.4642 22.45  255 255 255
62.4227 -12.3481 6.81749  255 255 255
-65.3425 -30.2435 94.8693  255 255 255
58.6231 -9.2205 0.375506  255 255 255
-14.173 -6.07892 23.0904  255 255 255
-12.3791 -7.86034 26.1859  255 255 255
59.5714 -10.6251 1.69898  255 255 255
62.6141 -13.6469 6.54624  255 255 255
58.7699 -10.194 -0.153752  255 255 255
2.44586 -15.3184 33.4686  255 255 255
58.1522 -10.3066 -1.48351  255 255 255
-14.5787 0.103134 7.55624  255 255 255
66.7553 -24.1556 23.7371  255 255 255
58.0932 -10.2519 -2.20851  255 255 255
-14.3017 -8.06308 24.0796  255 255 255
8.95052 -16.4717 31.7504  255 255 255
59.6167 -12.5494 0.244606  255 255 255
60.8797 -13.8267 1.93771  255 255 255
61.2394 -14.3235 2.40364  255 255 255
58.5777 -11.8475 -1.99467  255 255 255
60.1845 -14.5096 0.356807  255 255 255
-16.5894 -6.97927 18.9531  255 255 255
61.8925 -16.3443 2.41067  255 255 255
61.8797 -16.3203 2.39309  255 255 255
-15.0615 -9.98876 23.9592  255 255 255
18.8037 -18.2391 26.1298  255 255 255
60.2216 -15.3011 -0.505032  255 255 255
60.5415 -15.6061 -0.225375  255 255 255
-12.17 -13.0545 27.9486  255 255 255
-18.6602 -6.25199 14.8485  255 255 255
59.3837 -15.8415 -2.42406  255 255 255
-1.36518 -18.8025 32.862  255 255 255
-7.97887 -16.6052 30.9944  255 255 255
25.1588 -21.1568 24.6206  255 255 255
-16.6213 -10.8613 21.4225  255 255 255
6.3334 -20.441 31.8877  255 255 255
-15.0178 -13.0431 24.7197  255 255 255
61.1998 -19.4978 -1.00132  255 255 255
63.8523 -22.07 2.88433  255 255 255
21.6984 -22.8299 26.7765  255 255 255
23.0923 -23.4854 27.4377  255 255 255
-4.66049 -20.093 31.8974  255 255 255
-9.77508 -18.1205 29.7307  255 255 255
65.2956 -25.1914 3.36204  255 255 255
58.8035 -19.2381 -7.26668  255 255 255
-6.47324 -20.166 31.0336  255 255 255
-64.9703 -32.6278 92.278  255 255 255
-13.7603 -19.161 28.8889  255 255 255
13.369 -26.8803 31.6527  255 255 255
-11.5668 -21.4162 31.1908  255 255 255
61.8755 -25.5402 -4.56921  255 255 255
62.0428 -25.542 -4.72075  255 255 255
-13.8384 -20.7185 29.5056  255 255 255
-16.1136 -19.7106 27.8603  255 255 255
3.14183 -26.5093 32.9315  255 255 255
-65.6351 -33.1203 92.2508  255 255 255
71.0072 -35.0079 11.4506  255 255 255
-26.1651 -11.5494 11.1947  255 255 255
-5.50496 -24.7028 32.8033  255 255 255
-10.7434 -23.2305 31.2747  255 255 255
0.521533 -26.7936 32.8688  255 255 255
-22.7698 -17.359 22.6319  255 255 255
-5.05201 -25.7061 32.4916  255 255 255
-4.71303 -25.9146 32.5883  255 255 255
-33.0027 6.09591 -36.2279  255 255 255
-6.95673 -25.3868 32.048  255 255 255
5.03775 -29.5399 34.8534  255 255 255
-21.8146 -19.5721 25.2047  255 255 255
68.7937 -34.9141 4.0049  255 255 255
-24.7276 -17.8393 21.1794  255 255 255
-20.8019 -21.9045 27.966  255 255 255
-2.07293 -29.1301 34.8005  255 255 255
-20.6023 -22.1514 28.2551  255 255 255
-20.6014 -22.3484 28.4686  255 255 255
-20.4423 -22.272 28.146  255 255 255
7.12342 -31.4568 34.1762  255 255 255
-11.4769 -26.3985 32.3168  255 255 255
-12.6812 -27.2003 33.2475  255 255 255
-12.3925 -27.7859 33.6442  255 255 255
-8.82946 -29.8958 33.2788  255 255 255
-25.3699 -20.3067 17.3557  255 255 255
-10.9183 -29.3944 32.5835  255 255 255
-37.8037 -3.67494 -25.6455  255 255 255
49.1756 -38.3201 8.39687  255 255 255
0.973547 -33.5716 32.6443  255 255 255
7.51068 -35.0228 30.9476  255 255 255
-39.7744 -5.42531 -23.7006  255 255 255
-37.5966 -6.52988 -22.4987  255 255 255
6.91173 -35.226 30.657  255 255 255
-23.3536 -23.3746 19.1984  255 255 255
-16.1454 -28.5978 28.0281  255 255 255
-7.78518 -32.6332 31.2085  255 255 255
-8.76248 -32.3398 30.9038  255 255 255
4.62865 -36.4521 29.674  255 255 255
-6.45098 -34.0446 30.0632  255 255 255
-15.6029 -31.281 26.1868  255 255 255
-18.3662 -30.158 23.9732  255 255 255
-18.1661 -30.4497 23.9626  255 255 255
-5.00706 -36.0538 29.4799  255 255 255
-18.8539 -31.147 22.5971  255 255 255
-6.37634 -36.4916 28.5382  255 255 255
-9.33396 220.203 -119.598  255 255 255
20.3671 133.617 -43.9602  255 255 255
19.3867 133.501 -45.86  255 255 255
-17.8247 116.479 -33.8767  255 255 255
20.4324 130.261 -48.55  255 255 255
-13.6401 114.995 -36.0561  255 255 255
-17.6778 113.31 -36.1585  255 255 255
4.32491 112.811 -36.2075  255 255 255
19.1254 125.202 -50.2889  255 255 255
-16.7927 111.993 -36.9348  255 255 255
98.9916 224.827 -157.788  255 255 255
-9.96427 107.465 -34.6968  255 255 255
-2.13403 109.562 -38.2493  255 255 255
-10.1846 104.357 -33.4979  255 255 255
-7.98627 99.4822 -32.5401  255 255 255
-6.54918 100.113 -33.1826  255 255 255
20.5732 111.044 -46.0842  255 255 255
-9.25347 100.421 -33.8311  255 255 255
-6.22523 95.8791 -31.76  255 255 255
4.34327 93.381 -34.3808  255 255 255
15.2283 96.9627 -39.7909  255 255 255
22.4922 98.6955 -44.7847  255 255 255
5.85871 92.1153 -37.9583  255 255 255
-3.82769 86.3363 -34.7009  255 255 255
51.6839 103.385 -61.9004  255 255 255
41.2221 100.009 -57.5912  255 255 255
50.764 58.7363 -7.13857  255 255 255
-32.7261 75.9023 -24.0312  255 255 255
49.3378 38.9283 16.1195  255 255 255
-37.1774 73.9869 -22.0909  255 255 255
55.482 52.152 -1.33498  255 255 255
55.4842 52.2915 -1.96625  255 255 255
50.7943 36.3968 17.6524  255 255 255
22.7234 92.1005 -51.1391  255 255 255
-40.346 72.4039 -21.3148  255 255 255
20.8658 91.8567 -50.9135  255 255 255
51.8701 100.275 -64.8383  255 255 255
61.1121 102.366 -68.9116  255 255 255
18.0594 89.8801 -49.7055  255 255 255
37.1606 95.6554 -59.1433  255 255 255
-19.3143 77.7224 -31.7849  255 255 255
39.8594 93.9541 -62.4597  255 255 255
43.8737 94.5535 -64.7687  255 255 255
32.1323 90.999 -59.1983  255 255 255
50.0329 55.8167 -14.5384  255 255 255
15.3545 86.1003 -51.3015  255 255 255
53.4843 30.3836 17.7335  255 255 255
9.41338 83.7166 -49.2214  255 255 255
9.46473 83.7988 -49.3349  255 255 255
44.4124 92.5567 -66.5114  255 255 255
57.8865 96.3352 -73.4278  255 255 255
44.2749 91.542 -67.4929  255 255 255
-20.7615 72.6671 -36.1089  255 255 255
-15.6997 73.5506 -38.5321  255 255 255
19.0144 81.9245 -57.0706  255 255 255
16.4211 80.3714 -56.5296  255 255 255
-16.3152 70.9535 -40.9667  255 255 255
57.2103 40.6107 -7.86947  255 255 255
-37.5993 64.8783 -30.1142  255 255 255
-16.3943 70.5454 -41.5217  255 255 255
-42.3966 63.1473 -28.2518  255 255 255
-21.121 68.6763 -39.3877  255 255 255
49.6834 28.3516 6.82827  255 255 255
-26.3694 65.6361 -37.2751  255 255 255
-20.71 66.9296 -41.0257  255 255 255
49.118 45.0598 -25.0269  255 255 255
52.5957 81.8972 -82.4999  255 255 255
57.5895 33.1611 -11.9038  255 255 255
33.0379 74.4063 -74.6942  255 255 255
58.9362 11.4208 17.5563  255 255 255
58.9362 11.4208 17.5563  255 255 255
33.2831 74.0308 -75.9163  255 255 255
-0.976197 64.742 -57.9104  255 255 255
54.8923 28.8605 -20.6394  255 255 255
54.8923 28.8605 -20.6394  255 255 255
54.8923 28.8605 -20.6394  255 255 255
59.3454 5.9803 14.1306  255 255 255
46.9315 69.0119 -89.2868  255 255 255
70.6631 69.7561 -101.106  255 255 255
69.9502 69.1601 -102.266  255 255 255
69.9502 69.1601 -102.266  255 255 255
-29.6837 51.4031 -47.9672  255 255 255
60.8801 -0.500206 14.9661  255 255 255
62.957 -4.22833 15.6014  255 255 255
53.8416 5.52552 0.418819  255 255 255
6.56906 -6.13025 30.2319  255 255 255
4.99654 -7.06111 31.3086  255 255 255
-7.40799 -2.84406 26.3814  255 255 255
-7.8029 -3.02934 26.3399  255 255 255
-8.62474 47.1175 -70.2428  255 255 255
0.383112 -7.23925 31.4498  255 255 255
-9.18937 47.0798 -70.348  255 255 255
-3.18702 -6.13114 30.074  255 255 255
3.03686 -9.48818 32.5106  255 255 255
56.544 -3.59114 -0.264903  255 255 255
58.0327 -5.49895 2.14006  255 255 255
69.7533 -18.7273 21.7676  255 255 255
61.7207 -10.5794 7.08751  255 255 255
8.37654 -12.5933 31.9887  255 255 255
62.7758 -12.0926 8.33162  255 255 255
53.0262 -3.29132 -8.96778  255 255 255
-6.95348 -12.5164 31.3747  255 255 255
61.135 -13.4771 3.7092  255 255 255
61.3031 -14.0766 3.39148  255 255 255
71.4928 -24.8259 20.6689  255 255 255
-13.6387 -9.67139 25.5344  255 255 255
62.277 -15.9667 4.4566  255 255 255
-7.94938 -13.7352 31.0469  255 255 255
-11.7218 -11.7301 28.0685  255 255 255
-3.35826 -15.7936 32.8753  255 255 255
67.8009 -22.115 13.4398  255 255 255
67.8009 -22.115 13.4398  255 255 255
-1.93117 -16.3151 33.1821  255 255 255
-10.8298 -13.1752 28.9683  255 255 255
-16.8222 -5.29242 14.0271  255 255 255
9.63743 -18.7514 31.2442  255 255 255
58.4841 -13.9122 -3.65366  255 255 255
69.7842 -25.6478 15.8579  255 255 255
-16.4845 -10.2712 21.4507  255 255 255
-15.9989 -11.0071 22.9688  255 255 255
-16.38 -10.5472 21.8487  255 255 255
60.973 -17.8203 -1.10898  255 255 255
59.3229 -16.8173 -3.69399  255 255 255
-7.48341 -17.5848 31.1655  255 255 255
-64.4405 -31.7663 92.7791  255 255 255
-0.775995 -20.5649 32.4413  255 255 255
19.7285 -24.5299 28.7826  255 255 255
6.48453 -23.1993 32.2778  255 255 255
-2.71426 -21.6352 31.7577  255 255 255
-64.7888 -32.3973 92.2758  255 255 255
-65.0012 -32.4702 92.4561  255 255 255
-65.1081 -32.5173 92.4893  255 255 255
-65.7449 -32.7272 92.9267  255 255 255
-4.89711 -22.6424 32.2872  255 255 255
6.4108 -26.5374 32.7988  255 255 255
-11.624 -21.6018 31.0524  255 255 255
-25.204 -14.8258 20.1692  255 255 255
-32.116 8.89744 -39.2894  255 255 255
8.98055 -28.8209 34.051  255 255 255
-21.2249 -17.0371 22.283  255 255 255
-6.1618 -25.1518 32.3817  255 255 255
-13.3089 -22.7078 29.1381  255 255 255
-19.4306 -20.8154 26.5227  255 255 255
-20.4021 -20.5406 26.3773  255 255 255
0.708253 -29.391 35.0196  255 255 255
-14.9682 -23.7916 29.5035  255 255 255
-23.1848 -19.9006 23.4851  255 255 255
-4.39905 -28.7819 34.4715  255 255 255
4.61995 -31.4699 34.3994  255 255 255
-5.56948 -28.9204 34.7061  255 255 255
-5.91461 -29.1745 34.9561  255 255 255
1.21974 -31.4298 34.6854  255 255 255
-6.343 -30.5687 34.088  255 255 255
-7.50727 -30.5349 33.4237  255 255 255
-8.50082 -31.1256 32.2772  255 255 255
-10.9197 -30.5657 31.4509  255 255 255
-8.48379 -32.2649 31.119  255 255 255
-10.563 -31.8251 30.5114  255 255 255
-10.563 -31.8251 30.5114  255 255 255
-3.09117 -35.0305 31.2883  255 255 255
-36.4084 -12.9327 -15.5932  255 255 255
-36.7394 -11.7534 -19.5261  255 255 255
-8.55266 -34.6989 28.8526  255 255 255
-9.85523 -34.6707 28.2266  255 255 255
-3.83077 -37.6432 28.6879  255 255 255
-39.7829 -15.3153 -17.7884  255 255 255
-9.37189 214.857 -123.375  255 255 255
-17.9019 119.918 -31.8118  255 255 255
19.3857 134.327 -45.3986  255 255 255
19.5765 132.23 -46.5775  255 255 255
20.567 127.466 -50.7985  255 255 255
24.5412 113.082 -48.0571  255 255 255
-10.405 100.883 -35.2251  255 255 255
-6.81879 97.2372 -31.9127  255 255 255
-41.5901 85.2808 -20.0646  255 255 255
-4.18232 92.2671 -30.9683  255 255 255
-42.6221 84.2567 -20.5238  255 255 255
11.7299 96.0889 -38.0315  255 255 255
12.5046 95.6739 -39.0164  255 255 255
39.1806 102.726 -51.9684  255 255 255
33.468 101.048 -49.9279  255 255 255
66.0241 108.235 -67.6489  255 255 255
45.2723 101.624 -59.513  255 255 255
83.2047 114.287 -78.3244  255 255 255
-39.837 73.6257 -20.4956  255 255 255
13.0851 89.7492 -45.5102  255 255 255
19.9862 91.0948 -50.3959  255 255 255
51.105 36.0264 17.2702  255 255 255
54.7574 31.2733 21.2692  255 255 255
-51.4628 67.5217 -17.248  255 255 255
14.5408 86.8714 -50.3599  255 255 255
-29.5109 72.7982 -29.43  255 255 255
66.1493 100.181 -74.8117  255 255 255
9.9114 84.2166 -48.8575  255 255 255
40.0553 92.2252 -63.3511  255 255 255
-10.2325 77.4076 -39.9151  255 255 255
55.3577 46.5331 -8.19514  255 255 255
52.823 48.9841 -11.9841  255 255 255
68.0701 96.5745 -80.2594  255 255 255
57.5466 93.1247 -75.054  255 255 255
10.3481 80.3801 -53.026  255 255 255
-45.4773 63.8463 -24.9445  255 255 255
41.7711 87.2399 -70.6287  255 255 255
60.2862 91.1004 -79.7846  255 255 255
53.3058 44.5856 -13.3362  255 255 255
53.3889 44.2169 -14.8486  255 255 255
57.6295 89.1182 -79.2861  255 255 255
22.4265 79.3286 -61.9998  255 255 255
57.3742 19.2449 19.1258  255 255 255
-25.0642 66.3703 -38.7561  255 255 255
-18.2954 67.9799 -42.3051  255 255 255
43.7391 82.3664 -74.8759  255 255 255
49.6051 44.9917 -23.1082  255 255 255
49.1019 81.9872 -79.2612  255 255 255
59.3206 84.1086 -84.4272  255 255 255
3.7161 70.4502 -56.5987  255 255 255
54.9425 82.8269 -83.9192  255 255 255
59.2818 13.4451 19.2232  255 255 255
84.5694 89.1749 -98.9864  255 255 255
38.0138 77.873 -75.5652  255 255 255
58.424 12.4056 19.3103  255 255 255
59.4728 81.9594 -88.2943  255 255 255
78.3369 84.8559 -98.2912  255 255 255
66.3319 80.8911 -92.9483  255 255 255
19.6415 71.1706 -69.0106  255 255 255
19.6415 71.1706 -69.0106  255 255 255
57.0506 27.6609 -17.14  255 255 255
57.4105 27.0923 -16.4903  255 255 255
-35.2875 54.4755 -41.3967  255 255 255
11.7496 60.7572 -64.5456  255 255 255
24.2602 64.7657 -79.9682  255 255 255
49.3343 15.1888 -4.53658  255 255 255
56.717 22.6705 -21.3091  255 255 255
51.7591 66.533 -96.3003  255 255 255
27.2969 60.3238 -83.8397  255 255 255
67.0664 -8.34098 22.6441  255 255 255
-25.6573 48.6729 -54.1742  255 255 255
58.8924 0.245487 8.70528  255 255 255
62.644 -4.19204 14.0142  255 255 255
-1.77017 2.36923 20.3523  255 255 255
61.7582 -4.71595 11.6405  255 255 255
5.81764 -6.29902 30.4181  255 255 255
9.62419 50.8642 -79.4827  255 255 255
5.11581 -8.84129 31.922  255 255 255
51.9354 2.70971 -6.99038  255 255 255
-13.8395 43.5562 -64.7695  255 255 255
69.478 -16.7552 22.3004  255 255 255
20.5621 37.985 -72.6048  255 255 255
-12.8704 -5.79247 24.5164  255 255 255
62.0514 -12.0137 7.0604  255 255 255
61.2572 -11.4845 4.96758  255 255 255
-12.9841 -6.5386 24.8256  255 255 255
-13.8339 -8.61068 24.947  255 255 255
7.6229 -17.0014 32.2972  255 255 255
-16.2082 -1.93616 9.94992  255 255 255
-14.5459 -9.42382 24.3028  255 255 255
-17.1137 1.27116 1.82021  255 255 255
1.70208 -16.9665 33.3598  255 255 255
19.9704 -17.0302 24.6011  255 255 255
-17.7888 -3.31371 11.5159  255 255 255
-16.2298 -8.16575 21.1044  255 255 255
58.8102 -13.0519 -3.23831  255 255 255
70.3791 -26.4085 16.742  255 255 255
70.4333 -26.7678 16.8702  255 255 255
-11.7319 -13.9584 28.5349  255 255 255
70.8417 -27.9005 16.624  255 255 255
-65.5614 -31.9176 93.8659  255 255 255
-15.8909 -12.5966 23.4453  255 255 255
-64.47 -31.8406 92.5943  255 255 255
5.8865 -21.5548 31.6914  255 255 255
-65.2547 -31.9402 93.0466  255 255 255
-14.5768 -14.7193 25.4534  255 255 255
-11.8156 -16.6964 28.3014  255 255 255
12.1968 -23.5594 31.3038  255 255 255
70.4847 -30.6453 14.1124  255 255 255
-16.8958 12.2514 -43.3123  255 255 255
-65.2954 -32.45 92.8472  255 255 255
-65.5077 -32.5 93.0191  255 255 255
-12.6719 -18.938 28.7869  255 255 255
-13.0512 -19.4313 29.1614  255 255 255
13.5811 -27.6128 32.0477  255 255 255
17.895 -28.715 31.6885  255 255 255
-25.7122 -15.6905 21.0886  255 255 255
-11.0248 -23.134 31.0726  255 255 255
69.1405 -34.4235 7.39633  255 255 255
7.85856 -30.3703 35.3875  255 255 255
68.639 -34.5663 5.63652  255 255 255
6.96422 -30.6474 35.1132  255 255 255
1.14842 -29.0473 34.5366  255 255 255
-21.8711 -20.7511 26.2821  255 255 255
-24.2944 -18.6135 21.6719  255 255 255
-21.5116 -21.5349 27.3383  255 255 255
3.51254 -30.7145 34.9797  255 255 255
0.997103 -30.385 35.5177  255 255 255
-10.1905 -27.186 32.8313  255 255 255
-15.018 -26.7887 31.1348  255 255 255
-14.9752 -26.8015 31.0814  255 255 255
54.9458 -37.5808 6.93505  255 255 255
0.807085 -32.6592 33.5807  255 255 255
-20.2801 -25.306 26.3415  255 255 255
-15.9306 -27.5402 29.1293  255 255 255
-23.9015 -22.4967 19.4442  255 255 255
-16.6944 -27.3805 28.1751  255 255 255
-26.3418 -20.5829 13.7052  255 255 255
-13.2219 -30.2181 32.0245  255 255 255
-39.1525 -7.18562 -21.7548  255 255 255
46.5888 -42.3902 12.4926  255 255 255
-16.9317 -29.8965 26.0121  255 255 255
-18.2918 -29.946 24.2575  255 255 255
-24.5714 -27.263 20.1765  255 255 255
-18.5087 -30.2624 23.589  255 255 255
-23.647 -27.3447 18.0339  255 255 255
-37.5833 -14.5857 -13.7067  255 255 255
-24.5232 -27.723 19.1669  255 255 255
-38.8832 -15.8021 -12.4391  255 255 255
-11.0441 -35.1287 28.2135  255 255 255
19.6488 133.556 -44.1956  255 255 255
-9.83485 99.5909 -34.9101  255 255 255
-9.53908 98.9023 -34.8999  255 255 255
-45.3709 82.6575 -19.1394  255 255 255
36.0746 101.673 -50.73  255 255 255
29.7607 96.5136 -52.5963  255 255 255
42.6875 100.617 -58.0443  255 255 255
50.6825 59.0311 -7.33479  255 255 255
-48.7993 70.1833 -16.7621  255 255 255
53.0464 55.746 -6.41276  255 255 255
54.7995 30.3541 23.6403  255 255 255
-39.6808 70.9075 -22.7721  255 255 255
14.5336 87.313 -48.7663  255 255 255
57.1706 98.3124 -70.8649  255 255 255
33.0012 91.2116 -59.5023  255 255 255
51.3037 53.79 -12.8095  255 255 255
-37.91 68.8 -24.3851  255 255 255
53.2294 50.4859 -10.4034  255 255 255
28.9645 88.0799 -59.3201  255 255 255
58.3604 95.8098 -74.4437  255 255 255
83.3551 101.024 -87.7483  255 255 255
54.532 45.5688 -9.4127  255 255 255
13.4367 80.6386 -54.6322  255 255 255
61.3613 93.8628 -78.4431  255 255 255
50.2947 50.1146 -18.275  255 255 255
-14.7686 71.4714 -41.95  255 255 255
57.4462 90.4608 -77.935  255 255 255
55.8943 40.8894 -9.17281  255 255 255
57.2136 40.693 -11.72  255 255 255
82.8302 92.0657 -95.2116  255 255 255
59.5766 85.3623 -84.0793  255 255 255
67.6333 86.1697 -88.6805  255 255 255
61.4929 84.0354 -86.3966  255 255 255
69.9794 85.1957 -90.1729  255 255 255
31.0588 76.1964 -71.6399  255 255 255
55.6154 81.1915 -85.164  255 255 255
49.93 41.9103 -25.0854  255 255 255
45.0622 77.8785 -81.0269  255 255 255
58.6282 11.1391 18.7457  255 255 255
14.628 69.116 -66.7415  255 255 255
52.3872 35.8218 -23.4491  255 255 255
52.4611 35.8493 -23.5482  255 255 255
53.4814 13.7087 6.12651  255 255 255
52.1926 29.1341 -18.6872  255 255 255
24.964 67.2418 -75.4435  255 255 255
56.9859 26.7573 -17.5573  255 255 255
54.7345 29.0934 -21.5735  255 255 255
72.6492 73.5806 -102.983  255 255 255
-14.3403 56.7452 -55.2557  255 255 255
53.382 27.5399 -26.9147  255 255 255
53.2853 27.4634 -26.7665  255 255 255
69.1599 69.6563 -103.651  255 255 255
70.2657 68.5789 -101.895  255 255 255
47.8985 65.4166 -93.0476  255 255 255
-21.2211 52.4732 -53.871  255 255 255
-2.97606 55.2064 -64.3009  255 255 255
12.0274 56.1987 -75.2584  255 255 255
58.9288 1.03695 8.66335  255 255 255
58.4565 0.989408 7.59445  255 255 255
5.30632 2.81286 19.6108  255 255 255
62.5651 -4.19756 15.1896  255 255 255
3.54298 -6.55376 31.2796  255 255 255
-7.23896 -3.53791 27.1991  255 255 255
-9.52522 -2.48186 24.7011  255 255 255
68.3665 -16.4902 19.7017  255 255 255
-10.1381 -5.30151 26.59  255 255 255
-0.859707 -10.1372 32.6895  255 255 255
-1.92126 -9.93051 32.444  255 255 255
-2.71969 -11.0678 32.6387  255 255 255
70.1787 -19.9098 21.7981  255 255 255
61.087 -11.6872 4.43264  255 255 255
-14.6947 -8.44132 23.9938  255 255 255
60.2275 -13.711 0.621534  255 255 255
-13.0629 -10.9194 26.7347  255 255 255
62.6491 -16.9255 3.87702  255 255 255
62.6491 -16.9255 3.87702  255 255 255
-1.25127 -16.8727 32.6319  255 255 255
-13.5397 -12.0471 27.3231  255 255 255
-21.0923 -1.3415 5.15683  255 255 255
70.9532 -27.1396 17.3123  255 255 255
-16.1832 -10.3355 22.3483  255 255 255
-14.8442 -12.3804 24.8456  255 255 255
70.3754 -27.862 15.329  255 255 255
2.5651 -21.4832 31.538  255 255 255
-14.2819 -18.7432 28.5952  255 255 255
-7.41625 -21.8373 31.6341  255 255 255
-5.42444 -22.6308 32.4661  255 255 255
-7.49876 -22.3885 32.0867  255 255 255
-65.1866 -32.9216 91.857  255 255 255
-64.5425 -32.7606 90.9614  255 255 255
-64.5425 -32.7606 90.9614  255 255 255
-4.16998 -25.6384 32.9152  255 255 255
-27.0896 -15.9887 20.1152  255 255 255
-19.7206 -20.5488 26.4188  255 255 255
-25.5687 -13.5653 10.3213  255 255 255
-22.5141 -19.9171 25.4235  255 255 255
-31.4103 1.67887 -31.3554  255 255 255
-33.5249 1.50566 -31.3421  255 255 255
-11.926 -26.3974 32.138  255 255 255
-8.67308 -28.2735 34.3606  255 255 255
-38.901 -4.47368 -24.7087  255 255 255
1.83935 -35.7362 30.5629  255 255 255
-20.9594 -27.8729 24.0435  255 255 255
-8.23557 -33.1615 30.0284  255 255 255
-21.173 -28.2989 22.82  255 255 255
-8.42676 -35.4603 28.2889  255 255 255
-3.08963 -37.4178 29.1907  255 255 255
-6.25273 -36.4064 28.8663  255 255 255
-23.2528 -28.8288 17.2994  255 255 255
18.7161 132.854 -46.1674  255 255 255
18.1816 133.493 -49.0352  255 255 255
-9.2086 99.3489 -34.1402  255 255 255
-5.60789 97.3482 -32.2059  255 255 255
-18.6324 94.2497 -30.6199  255 255 255
0.874601 91.9403 -36.001  255 255 255
27.8083 99.2305 -47.3158  255 255 255
26.1319 99.6198 -48.1908  255 255 255
51.4519 62.0213 -6.81448  255 255 255
-4.47446 85.3456 -36.697  255 255 255
50.9411 57.7732 -10.87  255 255 255
-51.3464 66.8248 -17.9157  255 255 255
-44.5691 67.6086 -22.2893  255 255 255
50.475 33.4003 13.7385  255 255 255
13.1589 82.0906 -53.1738  255 255 255
57.4292 42.8378 -5.33685  255 255 255
59.0623 92.7296 -77.3695  255 255 255
16.7795 77.9608 -59.554  255 255 255
-36.9114 62.5387 -32.6723  255 255 255
55.9703 36.5625 -13.2676  255 255 255
50.5442 42.6255 -22.9383  255 255 255
50.5442 42.6255 -22.9383  255 255 255
51.0041 17.9092 8.56115  255 255 255
-26.9403 58.3773 -44.4339  255 255 255
60.658 9.58928 15.0156  255 255 255
65.5103 57.8698 -66.423  255 255 255
56.4466 27.8334 -18.6948  255 255 255
52.961 12.1352 2.62455  255 255 255
50.7457 14.0025 -2.87539  255 255 255
53.3368 8.24468 0.887167  255 255 255
52.4834 8.67191 -1.10688  255 255 255
52.4991 8.67829 -1.13892  255 255 255
52.3074 8.58835 -0.893093  255 255 255
-3.96703 50.8385 -68.2677  255 255 255
58.8654 -0.39807 6.01628  255 255 255
52.2226 5.94106 -4.36543  255 255 255
51.8161 5.93424 -3.43954  255 255 255
-3.30171 50.7897 -72.1046  255 255 255
-4.09285 49.6607 -69.6462  255 255 255
11.2139 51.128 -78.2177  255 255 255
-3.93322 48.8712 -71.2529  255 255 255
-3.93322 48.8712 -71.2529  255 255 255
0.429856 51.0847 -77.4827  255 255 255
60.0859 -7.66157 4.99512  255 255 255
69.3008 -17.9009 21.3644  255 255 255
-15.1816 -5.64968 21.2322  255 255 255
-0.640678 -14.6716 33.1658  255 255 255
-15.2344 -8.83673 23.1739  255 255 255
70.6401 -27.0905 16.6308  255 255 255
2.85197 -19.443 32.8087  255 255 255
-5.70705 -17.467 31.9734  255 255 255
71.1266 -29.7153 15.5318  255 255 255
69.1812 -27.9337 12.1661  255 255 255
-12.6712 -16.331 27.6152  255 255 255
-23.1576 -8.86928 13.3171  255 255 255
-64.9216 -32.3279 92.4762  255 255 255
-11.1534 -19.1404 28.9441  255 255 255
4.80637 -26.2296 32.9682  255 255 255
-25.5556 -11.822 13.995  255 255 255
70.2872 -34.027 10.4567  255 255 255
70.2678 -34.5688 10.0047  255 255 255
69.2208 -35.0045 6.91928  255 255 255
-34.4436 3.1239 -33.1549  255 255 255
-20.5809 -21.9402 27.73  255 255 255
-7.18113 -27.9104 33.8057  255 255 255
-16.0245 -27.1353 29.4606  255 255 255
-33.5001 -9.77151 -19.5572  255 255 255
-15.9987 -31.3596 25.7292  255 255 255
-15.9987 -31.3596 25.7292  255 255 255
-19.4292 -29.8658 23.1308  255 255 255
-18.4775 115.762 -36.5993  255 255 255
-16.9753 113.319 -35.9478  255 255 255
3.74608 113.185 -36.1255  255 255 255
-42.0774 89.7965 -15.7094  255 255 255
17.8202 112.118 -45.3913  255 255 255
0.382197 101.399 -35.6659  255 255 255
0.382197 101.399 -35.6659  255 255 255
-6.12533 94.374 -31.7621  255 255 255
-4.17242 90.6764 -31.7407  255 255 255
-12.5106 83.2385 -31.0972  255 255 255
53.5533 54.6926 -5.72029  255 255 255
0.616109 83.5641 -42.1515  255 255 255
-23.4855 67.3569 -38.9165  255 255 255
82.1184 90.8848 -96.0021  255 255 255
10.1297 69.1211 -64.6214  255 255 255
50.9458 36.5841 -26.3198  255 255 255
-5.52747 62.5126 -57.1629  255 255 255
50.3428 18.0424 2.10871  255 255 255
37.1895 64.6828 -89.778  255 255 255
54.4466 24.8325 -25.6811  255 255 255
39.6585 63.288 -90.719  255 255 255
48.3699 10.5786 -8.72053  255 255 255
51.4608 6.6966 -4.18224  255 255 255
64.306 -7.78335 15.806  255 255 255
69.251 -15.091 23.6739  255 255 255
51.2602 2.89877 -4.61287  255 255 255
69.2323 -16.4693 21.796  255 255 255
-12.4409 -4.20285 23.5242  255 255 255
-2.63907 -11.5197 31.9832  255 255 255
-2.93688 -12.4308 32.7177  255 255 255
68.4611 -19.7942 17.5801  255 255 255
-14.2781 -7.17118 23.741  255 255 255
-6.39835 -12.971 31.4833  255 255 255
-2.53724 -14.5339 33.0139  255 255 255
-11.4542 -11.6891 28.4303  255 255 255
2.85836 -18.4932 33.019  255 255 255
-13.8688 -12.5671 26.04  255 255 255
-25.3144 -11.0783 16.132  255 255 255
-64.8198 -32.6062 91.9785  255 255 255
-25.82 -13.655 17.6353  255 255 255
70.8269 -35.0758 10.581  255 255 255
70.8269 -35.0758 10.581  255 255 255
-28.9319 5.4149 -35.562  255 255 255
-22.7354 -18.6589 24.4643  255 255 255
-19.6835 -22.3731 28.2858  255 255 255
