# .PCD v0.7 - Point Cloud Data file format
VERSION 0.7
FIELDS x y z
SIZE 4 4 4
TYPE F F F
COUNT 1 1 1
WIDTH 1374
HEIGHT 1
VIEWPOINT 0 0 0 1 0 0 0
POINTS 1374
DATA ascii
-0.44045109	-0.03710064	0.75800002
-0.43770343	-0.0370517	0.75700003
-0.43006456	-0.03695381	0.75500005
-0.42733693	-0.03690486	0.75400001
-0.42517895	-0.03690486	0.75400001
-0.51961929	-0.03428217	0.74400002
-0.51679444	-0.0342361	0.74300003
-0.51466793	-0.0342361	0.74300003
-0.51392114	-0.03432826	0.74500006
-0.5117889	-0.03432826	0.74500006
-0.50965673	-0.03432826	0.74500006
-0.50752455	-0.03432826	0.74500006
-0.50539225	-0.03432826	0.74500006
-0.50393558	-0.03437433	0.74600005
-0.50180054	-0.03437433	0.74600005
-0.49966544	-0.03437433	0.74600005
-0.49819732	-0.03442041	0.74700004
-0.49605939	-0.03442041	0.74700004
-0.49524382	-0.03451257	0.74900001
-0.49375853	-0.03455865	0.75000006
-0.49292296	-0.0346508	0.75200003
-0.49077073	-0.0346508	0.75200003
-0.48926824	-0.03469688	0.75300002
-0.48776001	-0.03474296	0.75400001
-0.48560205	-0.03474296	0.75400001
-0.4828029	-0.03469688	0.75300002
-0.48128614	-0.03474296	0.75400001
-0.47849271	-0.03469688	0.75300002
-0.4769702	-0.03474296	0.75400001
-0.47418252	-0.03469688	0.75300002
-0.47265422	-0.03474296	0.75400001
-0.47112033	-0.03478904	0.75500005
-0.46895948	-0.03478904	0.75500005
-0.46865344	-0.03492727	0.75800002
-0.46709949	-0.03497335	0.75900006
-0.46553975	-0.03501943	0.76000005
-0.4639743	-0.03506551	0.76100004
-0.46240312	-0.03511158	0.76200002
-0.46143022	-0.03520374	0.76400006
-0.4592436	-0.03520374	0.76400006
-0.44972125	-0.03497335	0.75900006
-0.44695929	-0.03492727	0.75800002
-0.44478989	-0.03492727	0.75800002
-0.44262049	-0.03492727	0.75800002
-0.44045109	-0.03492727	0.75800002
-0.43770343	-0.03488119	0.75700003
-0.43006456	-0.03478904	0.75500005
-0.42733693	-0.03474296	0.75400001
-0.42517895	-0.03474296	0.75400001
-0.42302099	-0.03474296	0.75400001
-0.42086303	-0.03474296	0.75400001
-0.51679444	-0.03210573	0.74300003
-0.51466793	-0.03210573	0.74300003
-0.51392114	-0.03219216	0.74500006
-0.5111019	-0.03214894	0.74400002
-0.50897259	-0.03214894	0.74400002
-0.50752455	-0.03219216	0.74500006
-0.50539225	-0.03219216	0.74500006
-0.50393558	-0.03223537	0.74600005
-0.50180054	-0.03223537	0.74600005
-0.49966544	-0.03223537	0.74600005
-0.4975304	-0.03223537	0.74600005
-0.49605939	-0.03227858	0.74700004
-0.49524382	-0.032365	0.74900001
-0.49441686	-0.03245142	0.75100005
-0.49292296	-0.03249463	0.75200003
-0.49142337	-0.03253784	0.75300002
-0.48926824	-0.03253784	0.75300002
-0.48776001	-0.03258105	0.75400001
-0.48560205	-0.03258105	0.75400001
-0.4828029	-0.03253784	0.75300002
-0.48064783	-0.03253784	0.75300002
-0.47849271	-0.03253784	0.75300002
-0.47633764	-0.03253784	0.75300002
-0.47418252	-0.03253784	0.75300002
-0.47265422	-0.03258105	0.75400001
-0.47112033	-0.03262427	0.75500005
-0.46895948	-0.03262427	0.75500005
-0.46803519	-0.03271069	0.75700003
-0.46648404	-0.0327539	0.75800002
-0.4649272	-0.03279711	0.75900006
-0.46336463	-0.03284032	0.76000005
-0.46118948	-0.03284032	0.76000005
-0.46022227	-0.03292674	0.76200002
-0.45864245	-0.03296995	0.76300001
-0.45031378	-0.03284032	0.76000005
-0.44695929	-0.0327539	0.75800002
-0.44478989	-0.0327539	0.75800002
-0.44262049	-0.0327539	0.75800002
-0.44045109	-0.0327539	0.75800002
-0.43828163	-0.0327539	0.75800002
-0.43006456	-0.03262427	0.75500005
-0.42733693	-0.03258105	0.75400001
-0.42517895	-0.03258105	0.75400001
-0.42245996	-0.03253784	0.75300002
-0.42030486	-0.03253784	0.75300002
-0.41814974	-0.03253784	0.75300002
-0.5189209	-0.02997537	0.74300003
-0.51609892	-0.02993502	0.74200004
-0.51397526	-0.02993502	0.74200004
-0.51323128	-0.03001571	0.74400002
-0.5111019	-0.03001571	0.74400002
-0.50897259	-0.03001571	0.74400002
-0.50684327	-0.03001571	0.74400002
-0.50471389	-0.03001571	0.74400002
-0.50393558	-0.0300964	0.74600005
-0.50180054	-0.0300964	0.74600005
-0.49966544	-0.0300964	0.74600005
-0.49819732	-0.03013674	0.74700004
-0.49605939	-0.03013674	0.74700004
-0.49590504	-0.03025777	0.75000006
-0.49441686	-0.03029812	0.75100005
-0.49292296	-0.03033846	0.75200003
-0.49077073	-0.03033846	0.75200003
-0.48991802	-0.03041915	0.75400001
-0.48776001	-0.03041915	0.75400001
-0.48560205	-0.03041915	0.75400001
-0.48344409	-0.03041915	0.75400001
-0.48128614	-0.03041915	0.75400001
-0.47849271	-0.0303788	0.75300002
-0.47633764	-0.0303788	0.75300002
-0.47481224	-0.03041915	0.75400001
-0.47265422	-0.03041915	0.75400001
-0.47112033	-0.03045949	0.75500005
-0.46895948	-0.03045949	0.75500005
-0.46803519	-0.03054018	0.75700003
-0.46648404	-0.03058052	0.75800002
-0.46431464	-0.03058052	0.75800002
-0.46275494	-0.03062087	0.75900006
-0.46118948	-0.03066121	0.76000005
-0.4596183	-0.03070156	0.76100004
-0.45804137	-0.0307419	0.76200002
-0.45090628	-0.03070156	0.76100004
-0.44695929	-0.03058052	0.75800002
-0.44478989	-0.03058052	0.75800002
-0.44262049	-0.03058052	0.75800002
-0.44045109	-0.03058052	0.75800002
-0.43828163	-0.03058052	0.75800002
-0.43006456	-0.03045949	0.75500005
-0.42733693	-0.03041915	0.75400001
-0.42517895	-0.03041915	0.75400001
-0.42245996	-0.0303788	0.75300002
-0.42030486	-0.0303788	0.75300002
-0.41759446	-0.03033846	0.75200003
-0.41599467	-0.0303788	0.75300002
-0.41328993	-0.03033846	0.75200003
-0.51609892	-0.02780752	0.74200004
-0.51397526	-0.02780752	0.74200004
-0.51254147	-0.027845	0.74300003
-0.51041496	-0.027845	0.74300003
-0.5082885	-0.027845	0.74300003
-0.50684327	-0.02788248	0.74400002
-0.50539225	-0.02791996	0.74500006
-0.50393558	-0.02795743	0.74600005
-0.50247318	-0.02799491	0.74700004
-0.49966544	-0.02795743	0.74600005
-0.49819732	-0.02799491	0.74700004
-0.49605939	-0.02799491	0.74700004
-0.49590504	-0.02810734	0.75000006
-0.49441686	-0.02814481	0.75100005
-0.49292296	-0.02818229	0.75200003
-0.49077073	-0.02818229	0.75200003
-0.48926824	-0.02821977	0.75300002
-0.48776001	-0.02825724	0.75400001
-0.48560205	-0.02825724	0.75400001
-0.48344409	-0.02825724	0.75400001
-0.48128614	-0.02825724	0.75400001
-0.47849271	-0.02821977	0.75300002
-0.47633764	-0.02821977	0.75300002
-0.47481224	-0.02825724	0.75400001
-0.47265422	-0.02825724	0.75400001
-0.47112033	-0.02829472	0.75500005
-0.46895948	-0.02829472	0.75500005
-0.46803519	-0.02836967	0.75700003
-0.46648404	-0.02840715	0.75800002
-0.46431464	-0.02840715	0.75800002
-0.46275494	-0.02844463	0.75900006
-0.46058264	-0.02844463	0.75900006
-0.45901433	-0.0284821	0.76000005
-0.45744029	-0.02851958	0.76100004
-0.45090628	-0.02851958	0.76100004
-0.44813862	-0.0284821	0.76000005
-0.44537669	-0.02844463	0.75900006
-0.44320443	-0.02844463	0.75900006
-0.44103217	-0.02844463	0.75900006
-0.43828163	-0.02840715	0.75800002
-0.43006456	-0.02829472	0.75500005
-0.42733693	-0.02825724	0.75400001
-0.42517895	-0.02825724	0.75400001
-0.42302099	-0.02825724	0.75400001
-0.42030486	-0.02821977	0.75300002
-0.41759446	-0.02818229	0.75200003
-0.4154422	-0.02818229	0.75200003
-0.41328993	-0.02818229	0.75200003
-0.4111377	-0.02818229	0.75200003
-0.40898547	-0.02818229	0.75200003
-0.40737423	-0.02821977	0.75300002
-0.40575725	-0.02825724	0.75400001
-0.51822251	-0.02568003	0.74200004
-0.51609892	-0.02568003	0.74200004
-0.51397526	-0.02568003	0.74200004
-0.51185161	-0.02568003	0.74200004
-0.51041496	-0.02571463	0.74300003
-0.5082885	-0.02571463	0.74300003
-0.50684327	-0.02574924	0.74400002
-0.50539225	-0.02578385	0.74500006
-0.50393558	-0.02581846	0.74600005
-0.50247318	-0.02585307	0.74700004
-0.50033522	-0.02585307	0.74700004
-0.49819732	-0.02585307	0.74700004
-0.49672344	-0.02588768	0.74800003
-0.49590504	-0.0259569	0.75000006
-0.49441686	-0.02599151	0.75100005
-0.49292296	-0.02602612	0.75200003
-0.49077073	-0.02602612	0.75200003
-0.48926824	-0.02606073	0.75300002
-0.48776001	-0.02609534	0.75400001
-0.48560205	-0.02609534	0.75400001
-0.48344409	-0.02609534	0.75400001
-0.48064783	-0.02606073	0.75300002
-0.47849271	-0.02606073	0.75300002
-0.47633764	-0.02606073	0.75300002
-0.47481224	-0.02609534	0.75400001
-0.47265422	-0.02609534	0.75400001
-0.47112033	-0.02612995	0.75500005
-0.46895948	-0.02612995	0.75500005
-0.46803519	-0.02619916	0.75700003
-0.46586862	-0.02619916	0.75700003
-0.46431464	-0.02623377	0.75800002
-0.46214518	-0.02623377	0.75800002
-0.45997578	-0.02623377	0.75800002
-0.45841035	-0.02626839	0.75900006
-0.4568392	-0.02630299	0.76000005
-0.45090628	-0.0263376	0.76100004
-0.44813862	-0.02630299	0.76000005
-0.4459635	-0.02630299	0.76000005
-0.44378838	-0.02630299	0.76000005
-0.4416132	-0.02630299	0.76000005
-0.43885988	-0.02626839	0.75900006
-0.43063417	-0.02616456	0.75600004
-0.42733693	-0.02609534	0.75400001
-0.42517895	-0.02609534	0.75400001
-0.42302099	-0.02609534	0.75400001
-0.42030486	-0.02606073	0.75300002
-0.41759446	-0.02602612	0.75200003
-0.4154422	-0.02602612	0.75200003
-0.41328993	-0.02602612	0.75200003
-0.4111377	-0.02602612	0.75200003
-0.40898547	-0.02602612	0.75200003
-0.40737423	-0.02606073	0.75300002
-0.40575725	-0.02609534	0.75400001
-0.51822251	-0.02355253	0.74200004
-0.51540333	-0.02352079	0.74100006
-0.51397526	-0.02355253	0.74200004
-0.51185161	-0.02355253	0.74200004
-0.51041496	-0.02358427	0.74300003
-0.5082885	-0.02358427	0.74300003
-0.50684327	-0.02361601	0.74400002
-0.50539225	-0.02364775	0.74500006
-0.50461107	-0.02371124	0.74700004
-0.50247318	-0.02371124	0.74700004
-0.50033522	-0.02371124	0.74700004
-0.49886423	-0.02374298	0.74800003
-0.49672344	-0.02374298	0.74800003
-0.49656627	-0.02383821	0.75100005
-0.49507523	-0.02386995	0.75200003
-0.49292296	-0.02386995	0.75200003
-0.49142337	-0.02390169	0.75300002
-0.48926824	-0.02390169	0.75300002
-0.48776001	-0.02393343	0.75400001
-0.48560205	-0.02393343	0.75400001
-0.4828029	-0.02390169	0.75300002
-0.48064783	-0.02390169	0.75300002
-0.47849271	-0.02390169	0.75300002
-0.47633764	-0.02390169	0.75300002
-0.47418252	-0.02390169	0.75300002
-0.47265422	-0.02393343	0.75400001
-0.47112033	-0.02396517	0.75500005
-0.46895948	-0.02396517	0.75500005
-0.46803519	-0.02402866	0.75700003
-0.46586862	-0.02402866	0.75700003
-0.46431464	-0.0240604	0.75800002
-0.46214518	-0.0240604	0.75800002
-0.45997578	-0.0240604	0.75800002
-0.45780638	-0.0240604	0.75800002
-0.45623812	-0.02409214	0.75900006
-0.45090628	-0.02415563	0.76100004
-0.44813862	-0.02412388	0.76000005
-0.4459635	-0.02412388	0.76000005
-0.44378838	-0.02412388	0.76000005
-0.4416132	-0.02412388	0.76000005
-0.43943807	-0.02412388	0.76000005
-0.43063417	-0.02399692	0.75600004
-0.42790371	-0.02396517	0.75500005
-0.42517895	-0.02393343	0.75400001
-0.42245996	-0.02390169	0.75300002
-0.42030486	-0.02390169	0.75300002
-0.41759446	-0.02386995	0.75200003
-0.4154422	-0.02386995	0.75200003
-0.41328993	-0.02386995	0.75200003
-0.4111377	-0.02386995	0.75200003
-0.40898547	-0.02386995	0.75200003
-0.40683323	-0.02386995	0.75200003
-0.51540333	-0.02139615	0.74100006
-0.51397526	-0.02142503	0.74200004
-0.51185161	-0.02142503	0.74200004
-0.50972801	-0.02142503	0.74200004
-0.50760442	-0.02142503	0.74200004
-0.50684327	-0.02148278	0.74400002
-0.50607067	-0.02154053	0.74600005
-0.50461107	-0.0215694	0.74700004
-0.50247318	-0.0215694	0.74700004
-0.50100499	-0.02159828	0.74800003
-0.49953115	-0.02162715	0.74900001
-0.4973875	-0.02162715	0.74900001
-0.49656627	-0.0216849	0.75100005
-0.49507523	-0.02171378	0.75200003
-0.49292296	-0.02171378	0.75200003
-0.49142337	-0.02174265	0.75300002
-0.48926824	-0.02174265	0.75300002
-0.48776001	-0.02177153	0.75400001
-0.48495802	-0.02174265	0.75300002
-0.4828029	-0.02174265	0.75300002
-0.48064783	-0.02174265	0.75300002
-0.47785729	-0.02171378	0.75200003
-0.47633764	-0.02174265	0.75300002
-0.47418252	-0.02174265	0.75300002
-0.47265422	-0.02177153	0.75400001
-0.47049627	-0.02177153	0.75400001
-0.46895948	-0.0218004	0.75500005
-0.46803519	-0.02185815	0.75700003
-0.46586862	-0.02185815	0.75700003
-0.46431464	-0.02188702	0.75800002
-0.46214518	-0.02188702	0.75800002
-0.45997578	-0.02188702	0.75800002
-0.45780638	-0.02188702	0.75800002
-0.45563698	-0.02188702	0.75800002
-0.45031378	-0.02194477	0.76000005
-0.44813862	-0.02194477	0.76000005
-0.4459635	-0.02194477	0.76000005
-0.44378838	-0.02194477	0.76000005
-0.4416132	-0.02194477	0.76000005
-0.43943807	-0.02194477	0.76000005
-0.43063417	-0.02182928	0.75600004
-0.42790371	-0.0218004	0.75500005
-0.42517895	-0.02177153	0.75400001
-0.42245996	-0.02174265	0.75300002
-0.42030486	-0.02174265	0.75300002
-0.41759446	-0.02171378	0.75200003
-0.4154422	-0.02171378	0.75200003
-0.41328993	-0.02171378	0.75200003
-0.41059098	-0.0216849	0.75100005
-0.40898547	-0.02171378	0.75200003
-0.40683323	-0.02171378	0.75200003
-0.404681	-0.02171378	0.75200003
-0.51401222	-0.01921951	0.73900002
-0.51258987	-0.01924551	0.74000001
-0.51116186	-0.01927152	0.74100006
-0.50972801	-0.01929753	0.74200004
-0.50760442	-0.01929753	0.74200004
-0.50616199	-0.01932354	0.74300003
-0.50607067	-0.01940156	0.74600005
-0.50461107	-0.01942757	0.74700004
-0.50247318	-0.01942757	0.74700004
-0.50100499	-0.01945358	0.74800003
-0.50019807	-0.01950559	0.75000006
-0.49871564	-0.0195316	0.75100005
-0.49722746	-0.0195576	0.75200003
-0.49507523	-0.0195576	0.75200003
-0.49292296	-0.0195576	0.75200003
-0.49142337	-0.01958361	0.75300002
-0.48926824	-0.01958361	0.75300002
-0.48711315	-0.01958361	0.75300002
-0.48495802	-0.01958361	0.75300002
-0.48216176	-0.0195576	0.75200003
-0.48000953	-0.0195576	0.75200003
-0.47785729	-0.0195576	0.75200003
-0.47633764	-0.01958361	0.75300002
-0.47418252	-0.01958361	0.75300002
-0.47265422	-0.01960962	0.75400001
-0.47049627	-0.01960962	0.75400001
-0.46895948	-0.01963563	0.75500005
-0.46803519	-0.01968764	0.75700003
-0.46586862	-0.01968764	0.75700003
-0.46431464	-0.01971365	0.75800002
-0.46214518	-0.01971365	0.75800002
-0.45997578	-0.01971365	0.75800002
-0.45780638	-0.01971365	0.75800002
-0.45563698	-0.01971365	0.75800002
-0.44972125	-0.01973966	0.75900006
-0.44754899	-0.01973966	0.75900006
-0.44537669	-0.01973966	0.75900006
-0.44320443	-0.01973966	0.75900006
-0.4416132	-0.01976567	0.76000005
-0.43885988	-0.01973966	0.75900006
-0.43120378	-0.01968764	0.75700003
-0.42790371	-0.01963563	0.75500005
-0.42574289	-0.01963563	0.75500005
-0.42245996	-0.01958361	0.75300002
-0.42030486	-0.01958361	0.75300002
-0.41759446	-0.0195576	0.75200003
-0.4154422	-0.0195576	0.75200003
-0.41328993	-0.0195576	0.75200003
-0.41059098	-0.0195316	0.75100005
-0.40844163	-0.0195316	0.75100005
-0.40683323	-0.0195576	0.75200003
-0.404681	-0.0195576	0.75200003
-0.40252873	-0.0195576	0.75200003
-0.39261547	-0.01981768	0.76200002
-0.51401222	-0.01710061	0.73900002
-0.51258987	-0.01712375	0.74000001
-0.51116186	-0.01714689	0.74100006
-0.50904107	-0.01714689	0.74100006
-0.50760442	-0.01717003	0.74200004
-0.50616199	-0.01719317	0.74300003
-0.50607067	-0.01726259	0.74600005
-0.50461107	-0.01728573	0.74700004
-0.50247318	-0.01728573	0.74700004
-0.50100499	-0.01730887	0.74800003
-0.50019807	-0.01735516	0.75000006
-0.49937969	-0.01740143	0.75200003
-0.49722746	-0.01740143	0.75200003
-0.49507523	-0.01740143	0.75200003
-0.49357843	-0.01742457	0.75300002
-0.49142337	-0.01742457	0.75300002
-0.48991802	-0.01744771	0.75400001
-0.48711315	-0.01742457	0.75300002
-0.48431402	-0.01740143	0.75200003
-0.48216176	-0.01740143	0.75200003
-0.48000953	-0.01740143	0.75200003
-0.47785729	-0.01740143	0.75200003
-0.47633764	-0.01742457	0.75300002
-0.47418252	-0.01742457	0.75300002
-0.47202739	-0.01742457	0.75300002
-0.47049627	-0.01744771	0.75400001
-0.46895948	-0.01747086	0.75500005
-0.46803519	-0.01751713	0.75700003
-0.46586862	-0.01751713	0.75700003
-0.46431464	-0.01754027	0.75800002
-0.46214518	-0.01754027	0.75800002
-0.45997578	-0.01754027	0.75800002
-0.45780638	-0.01754027	0.75800002
-0.45563698	-0.01754027	0.75800002
-0.44972125	-0.01756342	0.75900006
-0.44754899	-0.01756342	0.75900006
-0.44537669	-0.01756342	0.75900006
-0.44320443	-0.01756342	0.75900006
-0.44103217	-0.01756342	0.75900006
-0.43885988	-0.01756342	0.75900006
-0.42903721	-0.01751713	0.75700003
-0.42574289	-0.01747086	0.75500005
-0.42302099	-0.01744771	0.75400001
-0.42030486	-0.01742457	0.75300002
-0.41759446	-0.01740143	0.75200003
-0.4154422	-0.01740143	0.75200003
-0.41328993	-0.01740143	0.75200003
-0.41059098	-0.01737829	0.75100005
-0.40789774	-0.01735516	0.75000006
-0.40575123	-0.01735516	0.75000006
-0.40360472	-0.01735516	0.75000006
-0.4014582	-0.01735516	0.75000006
-0.39984411	-0.01737829	0.75100005
-0.38992223	-0.0176097	0.76100004
-0.37784463	-0.01765598	0.76300001
-0.51682568	-0.01500199	0.74000001
-0.51470774	-0.01500199	0.74000001
-0.51258987	-0.01500199	0.74000001
-0.51047194	-0.01500199	0.74000001
-0.50904107	-0.01502226	0.74100006
-0.50760442	-0.01504253	0.74200004
-0.50616199	-0.01506281	0.74300003
-0.50539225	-0.01510335	0.74500006
-0.50393558	-0.01512363	0.74600005
-0.50247318	-0.0151439	0.74700004
-0.50167477	-0.01518444	0.74900001
-0.50019807	-0.01520472	0.75000006
-0.49937969	-0.01524526	0.75200003
-0.49722746	-0.01524526	0.75200003
-0.49507523	-0.01524526	0.75200003
-0.49357843	-0.01526554	0.75300002
-0.49142337	-0.01526554	0.75300002
-0.48926824	-0.01526554	0.75300002
-0.48711315	-0.01526554	0.75300002
-0.48431402	-0.01524526	0.75200003
-0.48216176	-0.01524526	0.75200003
-0.48000953	-0.01524526	0.75200003
-0.47785729	-0.01524526	0.75200003
-0.47570506	-0.01524526	0.75200003
-0.47418252	-0.01526554	0.75300002
-0.47202739	-0.01526554	0.75300002
-0.47049627	-0.01528581	0.75400001
-0.46895948	-0.01530608	0.75500005
-0.46803519	-0.01534663	0.75700003
-0.46586862	-0.01534663	0.75700003
-0.46431464	-0.0153669	0.75800002
-0.46214518	-0.0153669	0.75800002
-0.45997578	-0.0153669	0.75800002
-0.45780638	-0.0153669	0.75800002
-0.45563698	-0.0153669	0.75800002
-0.44912872	-0.0153669	0.75800002
-0.44695929	-0.0153669	0.75800002
-0.44478989	-0.0153669	0.75800002
-0.44262049	-0.0153669	0.75800002
-0.44045109	-0.0153669	0.75800002
-0.43885988	-0.01538717	0.75900006
-0.42358205	-0.01530608	0.75500005
-0.42086303	-0.01528581	0.75400001
-0.41814974	-0.01526554	0.75300002
-0.4154422	-0.01524526	0.75200003
-0.41328993	-0.01524526	0.75200003
-0.41059098	-0.01522499	0.75100005
-0.40789774	-0.01520472	0.75000006
-0.40575123	-0.01520472	0.75000006
-0.40360472	-0.01520472	0.75000006
-0.4014582	-0.01520472	0.75000006
-0.39931166	-0.01520472	0.75000006
-0.38774422	-0.01542772	0.76100004
-0.3855662	-0.01542772	0.76100004
-0.37516856	-0.01544799	0.76200002
-0.51682568	-0.01288022	0.74000001
-0.51470774	-0.01288022	0.74000001
-0.51258987	-0.01288022	0.74000001
-0.51116186	-0.01289763	0.74100006
-0.50904107	-0.01289763	0.74100006
-0.50760442	-0.01291504	0.74200004
-0.50616199	-0.01293244	0.74300003
-0.50607067	-0.01298466	0.74600005
-0.50393558	-0.01298466	0.74600005
-0.50247318	-0.01300206	0.74700004
-0.50167477	-0.01303687	0.74900001
-0.50019807	-0.01305428	0.75000006
-0.49937969	-0.01308909	0.75200003
-0.49722746	-0.01308909	0.75200003
-0.49573356	-0.0131065	0.75300002
-0.49357843	-0.0131065	0.75300002
-0.49142337	-0.0131065	0.75300002
-0.48926824	-0.0131065	0.75300002
-0.48711315	-0.0131065	0.75300002
-0.48431402	-0.01308909	0.75200003
-0.48216176	-0.01308909	0.75200003
-0.48000953	-0.01308909	0.75200003
-0.47785729	-0.01308909	0.75200003
-0.47570506	-0.01308909	0.75200003
-0.47418252	-0.0131065	0.75300002
-0.47202739	-0.0131065	0.75300002
-0.47049627	-0.0131239	0.75400001
-0.46895948	-0.01314131	0.75500005
-0.46803519	-0.01317612	0.75700003
-0.46586862	-0.01317612	0.75700003
-0.46431464	-0.01319353	0.75800002
-0.46214518	-0.01319353	0.75800002
-0.45997578	-0.01319353	0.75800002
-0.45780638	-0.01319353	0.75800002
-0.45563698	-0.01319353	0.75800002
-0.44912872	-0.01319353	0.75800002
-0.44695929	-0.01319353	0.75800002
-0.44478989	-0.01319353	0.75800002
-0.44262049	-0.01319353	0.75800002
-0.44045109	-0.01319353	0.75800002
-0.43828163	-0.01319353	0.75800002
-0.43177336	-0.01319353	0.75800002
-0.42960396	-0.01319353	0.75800002
-0.42687067	-0.01317612	0.75700003
-0.42414308	-0.01315871	0.75600004
-0.42142123	-0.01314131	0.75500005
-0.41870508	-0.0131239	0.75400001
-0.41599467	-0.0131065	0.75300002
-0.41328993	-0.01308909	0.75200003
-0.41059098	-0.01307169	0.75100005
-0.40844163	-0.01307169	0.75100005
-0.40575123	-0.01305428	0.75000006
-0.40360472	-0.01305428	0.75000006
-0.4014582	-0.01305428	0.75000006
-0.39984411	-0.01307169	0.75100005
-0.39822426	-0.01308909	0.75200003
-0.39607203	-0.01308909	0.75200003
-0.39444357	-0.0131065	0.75300002
-0.39333045	-0.01314131	0.75500005
-0.39220583	-0.01317612	0.75700003
-0.39106977	-0.01321093	0.75900006
-0.38940987	-0.01322834	0.76000005
-0.38774422	-0.01324574	0.76100004
-0.3855662	-0.01324574	0.76100004
-0.38338819	-0.01324574	0.76100004
-0.38171116	-0.01326315	0.76200002
-0.37953031	-0.01326315	0.76200002
-0.37784463	-0.01328055	0.76300001
-0.37566093	-0.01328055	0.76300001
-0.37347719	-0.01328055	0.76300001
-0.37129346	-0.01328055	0.76300001
-0.36862594	-0.01326315	0.76200002
-0.36692601	-0.01328055	0.76300001
-0.36474225	-0.01328055	0.76300001
-0.36255854	-0.01328055	0.76300001
-0.51612723	-0.01074392	0.73900002
-0.51470774	-0.01075846	0.74000001
-0.51258987	-0.01075846	0.74000001
-0.51047194	-0.01075846	0.74000001
-0.50904107	-0.010773	0.74100006
-0.50692028	-0.010773	0.74100006
-0.50616199	-0.01080208	0.74300003
-0.50539225	-0.01083115	0.74500006
-0.50461107	-0.01086023	0.74700004
-0.50247318	-0.01086023	0.74700004
-0.50167477	-0.01088931	0.74900001
-0.50019807	-0.01090384	0.75000006
-0.49937969	-0.01093292	0.75200003
-0.49722746	-0.01093292	0.75200003
-0.49573356	-0.01094746	0.75300002
-0.49423394	-0.010962	0.75400001
-0.49142337	-0.01094746	0.75300002
-0.48926824	-0.01094746	0.75300002
-0.48646626	-0.01093292	0.75200003
-0.48431402	-0.01093292	0.75200003
-0.48216176	-0.01093292	0.75200003
-0.48000953	-0.01093292	0.75200003
-0.47785729	-0.01093292	0.75200003
-0.47570506	-0.01093292	0.75200003
-0.47355276	-0.01093292	0.75200003
-0.47202739	-0.01094746	0.75300002
-0.47049627	-0.010962	0.75400001
-0.46895948	-0.01097654	0.75500005
-0.46803519	-0.01100561	0.75700003
-0.46586862	-0.01100561	0.75700003
-0.46431464	-0.01102015	0.75800002
-0.46214518	-0.01102015	0.75800002
-0.45997578	-0.01102015	0.75800002
-0.45780638	-0.01102015	0.75800002
-0.45563698	-0.01102015	0.75800002
-0.45070276	-0.01100561	0.75700003
-0.44853619	-0.01100561	0.75700003
-0.44636965	-0.01100561	0.75700003
-0.44420311	-0.01100561	0.75700003
-0.44203654	-0.01100561	0.75700003
-0.44045109	-0.01102015	0.75800002
-0.43828163	-0.01102015	0.75800002
-0.43668759	-0.01103469	0.75900006
-0.4345153	-0.01103469	0.75900006
-0.43234307	-0.01103469	0.75900006
-0.42960396	-0.01102015	0.75800002
-0.42687067	-0.01100561	0.75700003
-0.42414308	-0.01099108	0.75600004
-0.4219794	-0.01099108	0.75600004
-0.41870508	-0.010962	0.75400001
-0.41599467	-0.01094746	0.75300002
-0.41328993	-0.01093292	0.75200003
-0.4111377	-0.01093292	0.75200003
-0.40844163	-0.01091838	0.75100005
-0.40575123	-0.01090384	0.75000006
-0.40414289	-0.01091838	0.75100005
-0.4014582	-0.01090384	0.75000006
-0.39984411	-0.01091838	0.75100005
-0.39769471	-0.01091838	0.75100005
-0.39607203	-0.01093292	0.75200003
-0.39444357	-0.01094746	0.75300002
-0.39280945	-0.010962	0.75400001
-0.39168772	-0.01099108	0.75600004
-0.39055449	-0.01102015	0.75800002
-0.38889748	-0.01103469	0.75900006
-0.38723472	-0.01104923	0.76000005
-0.3850596	-0.01104923	0.76000005
-0.38338819	-0.01106377	0.76100004
-0.38171116	-0.01107831	0.76200002
-0.37953031	-0.01107831	0.76200002
-0.37734941	-0.01107831	0.76200002
-0.37516856	-0.01107831	0.76200002
-0.37298769	-0.01107831	0.76200002
-0.37080684	-0.01107831	0.76200002
-0.36862594	-0.01107831	0.76200002
-0.36644509	-0.01107831	0.76200002
-0.36474225	-0.01109284	0.76300001
-0.36255854	-0.01109284	0.76300001
-0.36037484	-0.01109284	0.76300001
-0.35866055	-0.01110738	0.76400006
-0.35694057	-0.01112192	0.76500005
-0.35567856	-0.011151	0.76700002
-0.354866	-0.01119461	0.77000004
-0.51612723	-0.00862502	0.73900002
-0.51401222	-0.00862502	0.73900002
-0.51258987	-0.0086367	0.74000001
-0.51116186	-0.00864837	0.74100006
-0.50904107	-0.00864837	0.74100006
-0.50692028	-0.00864837	0.74100006
-0.50548077	-0.00866004	0.74200004
-0.50539225	-0.00869505	0.74500006
-0.50393558	-0.00870672	0.74600005
-0.50247318	-0.00871839	0.74700004
-0.50167477	-0.00874174	0.74900001
-0.50086504	-0.00876508	0.75100005
-0.49937969	-0.00877675	0.75200003
-0.49788868	-0.00878842	0.75300002
-0.49573356	-0.00878842	0.75300002
-0.49357843	-0.00878842	0.75300002
-0.49142337	-0.00878842	0.75300002
-0.48861849	-0.00877675	0.75200003
-0.48646626	-0.00877675	0.75200003
-0.48431402	-0.00877675	0.75200003
-0.48216176	-0.00877675	0.75200003
-0.47937125	-0.00876508	0.75100005
-0.47785729	-0.00877675	0.75200003
-0.47570506	-0.00877675	0.75200003
-0.47355276	-0.00877675	0.75200003
-0.47202739	-0.00878842	0.75300002
-0.47049627	-0.00880009	0.75400001
-0.46895948	-0.00881176	0.75500005
-0.46803519	-0.00883511	0.75700003
-0.46586862	-0.00883511	0.75700003
-0.46431464	-0.00884678	0.75800002
-0.46214518	-0.00884678	0.75800002
-0.45997578	-0.00884678	0.75800002
-0.45780638	-0.00884678	0.75800002
-0.45563698	-0.00884678	0.75800002
-0.45070276	-0.00883511	0.75700003
-0.44853619	-0.00883511	0.75700003
-0.44577998	-0.00882344	0.75600004
-0.4436163	-0.00882344	0.75600004
-0.44203654	-0.00883511	0.75700003
-0.43986997	-0.00883511	0.75700003
-0.43770343	-0.00883511	0.75700003
-0.43611223	-0.00884678	0.75800002
-0.43394282	-0.00884678	0.75800002
-0.43234307	-0.00885845	0.75900006
-0.42960396	-0.00884678	0.75800002
-0.42743456	-0.00884678	0.75800002
-0.42414308	-0.00882344	0.75600004
-0.4219794	-0.00882344	0.75600004
-0.41926038	-0.00881176	0.75500005
-0.41654712	-0.00880009	0.75400001
-0.41383955	-0.00878842	0.75300002
-0.4111377	-0.00877675	0.75200003
-0.40844163	-0.00876508	0.75100005
-0.40629223	-0.00876508	0.75100005
-0.40414289	-0.00876508	0.75100005
-0.40199348	-0.00876508	0.75100005
-0.39931166	-0.00875341	0.75000006
-0.39769471	-0.00876508	0.75100005
-0.39607203	-0.00877675	0.75200003
-0.3939198	-0.00877675	0.75200003
-0.39228851	-0.00878842	0.75300002
-0.39116961	-0.00881176	0.75500005
-0.39055449	-0.00884678	0.75800002
-0.38838509	-0.00884678	0.75800002
-0.38672519	-0.00885845	0.75900006
-0.3850596	-0.00887012	0.76000005
-0.38338819	-0.00888179	0.76100004
-0.38171116	-0.00889346	0.76200002
-0.37953031	-0.00889346	0.76200002
-0.37734941	-0.00889346	0.76200002
-0.37516856	-0.00889346	0.76200002
-0.37347719	-0.00890513	0.76300001
-0.37129346	-0.00890513	0.76300001
-0.36910975	-0.00890513	0.76300001
-0.36692601	-0.00890513	0.76300001
-0.36474225	-0.00890513	0.76300001
-0.36255854	-0.00890513	0.76300001
-0.36037484	-0.00890513	0.76300001
-0.35866055	-0.0089168	0.76400006
-0.35694057	-0.00892848	0.76500005
-0.35521483	-0.00894015	0.76600003
-0.35440513	-0.00897516	0.76900005
-0.35449424	-0.00903352	0.77400005
-0.29524952	-0.0089168	0.76400006
-0.29306293	-0.0089168	0.76400006
-0.29087636	-0.0089168	0.76400006
-0.28431657	-0.0089168	0.76400006
-0.25436172	-0.00878842	0.75300002
-0.25187171	-0.00877675	0.75200003
-0.24971944	-0.00877675	0.75200003
-0.51612723	-0.00650613	0.73900002
-0.51401222	-0.00650613	0.73900002
-0.51189715	-0.00650613	0.73900002
-0.51047194	-0.00651493	0.74000001
-0.50904107	-0.00652374	0.74100006
-0.50692028	-0.00652374	0.74100006
-0.50548077	-0.00653254	0.74200004
-0.50539225	-0.00655895	0.74500006
-0.50393558	-0.00656776	0.74600005
-0.50314581	-0.00658536	0.74800003
-0.50167477	-0.00659417	0.74900001
-0.50086504	-0.00661178	0.75100005
-0.49937969	-0.00662058	0.75200003
-0.49722746	-0.00662058	0.75200003
-0.49573356	-0.00662938	0.75300002
-0.49357843	-0.00662938	0.75300002
-0.49077073	-0.00662058	0.75200003
-0.48861849	-0.00662058	0.75200003
-0.48646626	-0.00662058	0.75200003
-0.48431402	-0.00662058	0.75200003
-0.48152059	-0.00661178	0.75100005
-0.47937125	-0.00661178	0.75100005
-0.47785729	-0.00662058	0.75200003
-0.47570506	-0.00662058	0.75200003
-0.47355276	-0.00662058	0.75200003
-0.47202739	-0.00662938	0.75300002
-0.47049627	-0.00663819	0.75400001
-0.46958062	-0.0066558	0.75600004
-0.46803519	-0.0066646	0.75700003
-0.46586862	-0.0066646	0.75700003
-0.46431464	-0.0066734	0.75800002
-0.46214518	-0.0066734	0.75800002
-0.45997578	-0.0066734	0.75800002
-0.45780638	-0.0066734	0.75800002
-0.45563698	-0.0066734	0.75800002
-0.45070276	-0.0066646	0.75700003
-0.44853619	-0.0066646	0.75700003
-0.44577998	-0.0066558	0.75600004
-0.4436163	-0.0066558	0.75600004
-0.44203654	-0.0066646	0.75700003
-0.43986997	-0.0066646	0.75700003
-0.43770343	-0.0066646	0.75700003
-0.43611223	-0.0066734	0.75800002
-0.43394282	-0.0066734	0.75800002
-0.43177336	-0.0066734	0.75800002
-0.42960396	-0.0066734	0.75800002
-0.42743456	-0.0066734	0.75800002
-0.42470413	-0.0066646	0.75700003
-0.42253757	-0.0066646	0.75700003
-0.41926038	-0.00664699	0.75500005
-0.41709954	-0.00664699	0.75500005
-0.41328993	-0.00662058	0.75200003
-0.4111377	-0.00662058	0.75200003
-0.40898547	-0.00662058	0.75200003
-0.40629223	-0.00661178	0.75100005
-0.40414289	-0.00661178	0.75100005
-0.4014582	-0.00660297	0.75000006
-0.39984411	-0.00661178	0.75100005
-0.39769471	-0.00661178	0.75100005
-0.39607203	-0.00662058	0.75200003
-0.3939198	-0.00662058	0.75200003
-0.39228851	-0.00662938	0.75300002
-0.39065149	-0.00663819	0.75400001
-0.39003927	-0.0066646	0.75700003
-0.38838509	-0.0066734	0.75800002
-0.38621566	-0.0066734	0.75800002
-0.38455293	-0.00668221	0.75900006
-0.38288441	-0.00669101	0.76000005
-0.38121024	-0.00669981	0.76100004
-0.37903222	-0.00669981	0.76100004
-0.37734941	-0.00670862	0.76200002
-0.37516856	-0.00670862	0.76200002
-0.37298769	-0.00670862	0.76200002
-0.37080684	-0.00670862	0.76200002
-0.36910975	-0.00671742	0.76300001
-0.36692601	-0.00671742	0.76300001
-0.36426425	-0.00670862	0.76200002
-0.36208338	-0.00670862	0.76200002
-0.36037484	-0.00671742	0.76300001
-0.35866055	-0.00672623	0.76400006
-0.35647398	-0.00672623	0.76400006
-0.35521483	-0.00674383	0.76600003
-0.30001485	-0.00673503	0.76500005
-0.29743612	-0.00672623	0.76400006
-0.29524952	-0.00672623	0.76400006
-0.29306293	-0.00672623	0.76400006
-0.29087636	-0.00672623	0.76400006
-0.28868976	-0.00672623	0.76400006
-0.28650317	-0.00672623	0.76400006
-0.28431657	-0.00672623	0.76400006
-0.28212997	-0.00672623	0.76400006
-0.2803098	-0.00673503	0.76500005
-0.27812037	-0.00673503	0.76500005
-0.27629158	-0.00674383	0.76600003
-0.2597025	-0.0066558	0.75600004
-0.25685748	-0.00663819	0.75400001
-0.25436172	-0.00662938	0.75300002
-0.25187171	-0.00662058	0.75200003
-0.24971944	-0.00662058	0.75200003
-0.24756719	-0.00662058	0.75200003
-0.24508862	-0.00661178	0.75100005
-0.24261574	-0.00660297	0.75000006
-0.23832271	-0.00660297	0.75000006
-0.2343417	-0.00661178	0.75100005
-0.18920468	-0.00661178	0.75100005
-0.18680625	-0.00660297	0.75000006
-0.18465972	-0.00660297	0.75000006
-0.18226984	-0.00659417	0.74900001
-0.18012618	-0.00659417	0.74900001
-0.17798252	-0.00659417	0.74900001
-0.17583886	-0.00659417	0.74900001
-0.17369519	-0.00659417	0.74900001
-0.17155156	-0.00659417	0.74900001
-0.16940789	-0.00659417	0.74900001
-0.16726424	-0.00659417	0.74900001
-0.16512057	-0.00659417	0.74900001
-0.16297692	-0.00659417	0.74900001
-0.16083325	-0.00659417	0.74900001
-0.1586896	-0.00659417	0.74900001
-0.15654595	-0.00659417	0.74900001
-0.15440229	-0.00659417	0.74900001
-0.15225863	-0.00659417	0.74900001
-0.15011497	-0.00659417	0.74900001
-0.14797132	-0.00659417	0.74900001
-0.14582765	-0.00659417	0.74900001
-0.143684	-0.00659417	0.74900001
-0.14154035	-0.00659417	0.74900001
-0.13939668	-0.00659417	0.74900001
-0.13725303	-0.00659417	0.74900001
-0.13510936	-0.00659417	0.74900001
-0.13296571	-0.00659417	0.74900001
-0.13082205	-0.00659417	0.74900001
-0.1286784	-0.00659417	0.74900001
-0.12653473	-0.00659417	0.74900001
-0.12439109	-0.00659417	0.74900001
-0.12224743	-0.00659417	0.74900001
-0.12010377	-0.00659417	0.74900001
-0.1179601	-0.00659417	0.74900001
-0.11581644	-0.00659417	0.74900001
-0.11367279	-0.00659417	0.74900001
-0.11152913	-0.00659417	0.74900001
-0.10938548	-0.00659417	0.74900001
-0.51542884	-0.00438129	0.73800004
-0.51401222	-0.00438723	0.73900002
-0.51258987	-0.00439317	0.74000001
-0.51116186	-0.0043991	0.74100006
-0.50904107	-0.0043991	0.74100006
-0.50760442	-0.00440504	0.74200004
-0.50548077	-0.00440504	0.74200004
-0.50539225	-0.00442285	0.74500006
-0.50393558	-0.00442879	0.74600005
-0.50247318	-0.00443472	0.74700004
-0.50167477	-0.0044466	0.74900001
-0.50086504	-0.00445847	0.75100005
-0.49937969	-0.00446441	0.75200003
-0.49722746	-0.00446441	0.75200003
-0.49507523	-0.00446441	0.75200003
-0.49292296	-0.00446441	0.75200003
-0.49077073	-0.00446441	0.75200003
-0.48861849	-0.00446441	0.75200003
-0.48646626	-0.00446441	0.75200003
-0.48367	-0.00445847	0.75100005
-0.48152059	-0.00445847	0.75100005
-0.47937125	-0.00445847	0.75100005
-0.47722185	-0.00445847	0.75100005
-0.47507244	-0.00445847	0.75100005
-0.47355276	-0.00446441	0.75200003
-0.47202739	-0.00447035	0.75300002
-0.47049627	-0.00447628	0.75400001
-0.46958062	-0.00448816	0.75600004
-0.46803519	-0.00449409	0.75700003
-0.46586862	-0.00449409	0.75700003
-0.46431464	-0.00450003	0.75800002
-0.46214518	-0.00450003	0.75800002
-0.45997578	-0.00450003	0.75800002
-0.45780638	-0.00450003	0.75800002
-0.45563698	-0.00450003	0.75800002
-0.44853619	-0.00449409	0.75700003
-0.44577998	-0.00448816	0.75600004
-0.44420311	-0.00449409	0.75700003
-0.44145262	-0.00448816	0.75600004
-0.43986997	-0.00449409	0.75700003
-0.43770343	-0.00449409	0.75700003
-0.43611223	-0.00450003	0.75800002
-0.43394282	-0.00450003	0.75800002
-0.43177336	-0.00450003	0.75800002
-0.42960396	-0.00450003	0.75800002
-0.42743456	-0.00450003	0.75800002
-0.42526516	-0.00450003	0.75800002
-0.42253757	-0.00449409	0.75700003
-0.41981572	-0.00448816	0.75600004
-0.41709954	-0.00448222	0.75500005
-0.41383955	-0.00447035	0.75300002
-0.4111377	-0.00446441	0.75200003
-0.40898547	-0.00446441	0.75200003
-0.40683323	-0.00446441	0.75200003
-0.40414289	-0.00445847	0.75100005
-0.40199348	-0.00445847	0.75100005
-0.39984411	-0.00445847	0.75100005
-0.39769471	-0.00445847	0.75100005
-0.3955453	-0.00445847	0.75100005
-0.3939198	-0.00446441	0.75200003
-0.39176753	-0.00446441	0.75200003
-0.39013338	-0.00447035	0.75300002
-0.38900879	-0.00448222	0.75500005
-0.3878727	-0.00449409	0.75700003
-0.38621566	-0.00450003	0.75800002
-0.38455293	-0.00450597	0.75900006
-0.38238063	-0.00450597	0.75900006
-0.38070929	-0.0045119	0.76000005
-0.37903222	-0.00451784	0.76100004
-0.37734941	-0.00452378	0.76200002
-0.37516856	-0.00452378	0.76200002
-0.37298769	-0.00452378	0.76200002
-0.37129346	-0.00452971	0.76300001
-0.36910975	-0.00452971	0.76300001
-0.36644509	-0.00452378	0.76200002
-0.36474225	-0.00452971	0.76300001
-0.36255854	-0.00452971	0.76300001
-0.36037484	-0.00452971	0.76300001
-0.35866055	-0.00453565	0.76400006
-0.35647398	-0.00453565	0.76400006
-0.35475111	-0.00454159	0.76500005
-0.35348338	-0.00455346	0.76700002
-0.31200168	-0.00458908	0.77300006
-0.30978933	-0.00458908	0.77300006
-0.30598536	-0.00456533	0.76900005
-0.30001485	-0.00454159	0.76500005
-0.29743612	-0.00453565	0.76400006
-0.29524952	-0.00453565	0.76400006
-0.29306293	-0.00453565	0.76400006
-0.29087636	-0.00453565	0.76400006
-0.28868976	-0.00453565	0.76400006
-0.28650317	-0.00453565	0.76400006
-0.28431657	-0.00453565	0.76400006
-0.28212997	-0.00453565	0.76400006
-0.2803098	-0.00454159	0.76500005
-0.27629158	-0.00454752	0.76600003
-0.27409929	-0.00454752	0.76600003
-0.2597025	-0.00448816	0.75600004
-0.25685748	-0.00447628	0.75400001
-0.25436172	-0.00447035	0.75300002
-0.25187171	-0.00446441	0.75200003
-0.24971944	-0.00446441	0.75200003
-0.24756719	-0.00446441	0.75200003
-0.24508862	-0.00445847	0.75100005
-0.24261574	-0.00445253	0.75000006
-0.24046923	-0.00445253	0.75000006
-0.23832271	-0.00445253	0.75000006
-0.23617619	-0.00445253	0.75000006
-0.2343417	-0.00445847	0.75100005
-0.23219232	-0.00445847	0.75100005
-0.23065555	-0.00447035	0.75300002
-0.18920468	-0.00445847	0.75100005
-0.18680625	-0.00445253	0.75000006
-0.18441348	-0.0044466	0.74900001
-0.18226984	-0.0044466	0.74900001
-0.18012618	-0.0044466	0.74900001
-0.1777449	-0.00444066	0.74800003
-0.1756041	-0.00444066	0.74800003
-0.1734633	-0.00444066	0.74800003
-0.17132251	-0.00444066	0.74800003
-0.1691817	-0.00444066	0.74800003
-0.16704091	-0.00444066	0.74800003
-0.16490012	-0.00444066	0.74800003
-0.16275932	-0.00444066	0.74800003
-0.16061853	-0.00444066	0.74800003
-0.15847774	-0.00444066	0.74800003
-0.15633693	-0.00444066	0.74800003
-0.15419614	-0.00444066	0.74800003
-0.15205535	-0.00444066	0.74800003
-0.14991455	-0.00444066	0.74800003
-0.14777376	-0.00444066	0.74800003
-0.14563295	-0.00444066	0.74800003
-0.14349216	-0.00444066	0.74800003
-0.14135137	-0.00444066	0.74800003
-0.13921057	-0.00444066	0.74800003
-0.13706978	-0.00444066	0.74800003
-0.13492899	-0.00444066	0.74800003
-0.13278818	-0.00444066	0.74800003
-0.13064739	-0.00444066	0.74800003
-0.1285066	-0.00444066	0.74800003
-0.1263658	-0.00444066	0.74800003
-0.12422501	-0.00444066	0.74800003
-0.12208422	-0.00444066	0.74800003
-0.11994342	-0.00444066	0.74800003
-0.11780262	-0.00444066	0.74800003
-0.11566182	-0.00444066	0.74800003
-0.11352103	-0.00444066	0.74800003
-0.11138023	-0.00444066	0.74800003
-0.10923944	-0.00444066	0.74800003
-0.10709865	-0.00444066	0.74800003
-0.10495785	-0.00444066	0.74800003
-0.10281705	-0.00444066	0.74800003
-0.10067625	-0.00444066	0.74800003
-0.09853546	-0.00444066	0.74800003
-0.09652352	-0.0044466	0.74900001
-0.09437988	-0.0044466	0.74900001
-0.09223622	-0.0044466	0.74900001
-0.51542884	-0.00226526	0.73800004
-0.51401222	-0.00226833	0.73900002
-0.51258987	-0.0022714	0.74000001
-0.51116186	-0.00227447	0.74100006
-0.50904107	-0.00227447	0.74100006
-0.50760442	-0.00227754	0.74200004
-0.50548077	-0.00227754	0.74200004
-0.50539225	-0.00228675	0.74500006
-0.50393558	-0.00228982	0.74600005
-0.50247318	-0.00229289	0.74700004
-0.50167477	-0.00229903	0.74900001
-0.50019807	-0.0023021	0.75000006
-0.49937969	-0.00230824	0.75200003
-0.49722746	-0.00230824	0.75200003
-0.49507523	-0.00230824	0.75200003
-0.49292296	-0.00230824	0.75200003
-0.49077073	-0.00230824	0.75200003
-0.48861849	-0.00230824	0.75200003
-0.48646626	-0.00230824	0.75200003
-0.48367	-0.00230517	0.75100005
-0.48087943	-0.0023021	0.75000006
-0.47873288	-0.0023021	0.75000006
-0.47722185	-0.00230517	0.75100005
-0.47507244	-0.00230517	0.75100005
-0.47355276	-0.00230824	0.75200003
-0.47202739	-0.00231131	0.75300002
-0.47049627	-0.00231438	0.75400001
-0.46895948	-0.00231745	0.75500005
-0.46803519	-0.00232358	0.75700003
-0.46586862	-0.00232358	0.75700003
-0.46431464	-0.00232665	0.75800002
-0.46214518	-0.00232665	0.75800002
-0.45997578	-0.00232665	0.75800002
-0.45780638	-0.00232665	0.75800002
-0.45563698	-0.00232665	0.75800002
-0.44794372	-0.00232052	0.75600004
-0.44577998	-0.00232052	0.75600004
-0.4436163	-0.00232052	0.75600004
-0.44145262	-0.00232052	0.75600004
-0.43928894	-0.00232052	0.75600004
-0.43770343	-0.00232358	0.75700003
-0.43553689	-0.00232358	0.75700003
-0.43337032	-0.00232358	0.75700003
-0.43177336	-0.00232665	0.75800002
-0.42960396	-0.00232665	0.75800002
-0.42743456	-0.00232665	0.75800002
-0.42470413	-0.00232358	0.75700003
-0.42253757	-0.00232358	0.75700003
-0.420371	-0.00232358	0.75700003
-0.41709954	-0.00231745	0.75500005
-0.4143891	-0.00231438	0.75400001
-0.41168442	-0.00231131	0.75300002
-0.40898547	-0.00230824	0.75200003
-0.40683323	-0.00230824	0.75200003
-0.40414289	-0.00230517	0.75100005
-0.40199348	-0.00230517	0.75100005
-0.39931166	-0.0023021	0.75000006
-0.39716515	-0.0023021	0.75000006
-0.39501864	-0.0023021	0.75000006
-0.39339596	-0.00230517	0.75100005
-0.39124656	-0.00230517	0.75100005
-0.3896153	-0.00230824	0.75200003
-0.38797829	-0.00231131	0.75300002
-0.38633555	-0.00231438	0.75400001
-0.38519663	-0.00232052	0.75600004
-0.38404623	-0.00232665	0.75800002
-0.38187683	-0.00232665	0.75800002
-0.38020837	-0.00232972	0.75900006
-0.37853417	-0.00233279	0.76000005
-0.37685424	-0.00233586	0.76100004
-0.37467623	-0.00233586	0.76100004
-0.37298769	-0.00233893	0.76200002
-0.37080684	-0.00233893	0.76200002
-0.36862594	-0.00233893	0.76200002
-0.36644509	-0.00233893	0.76200002
-0.36426425	-0.00233893	0.76200002
-0.36208338	-0.00233893	0.76200002
-0.36037484	-0.002342	0.76300001
-0.3581911	-0.002342	0.76300001
-0.35600737	-0.002342	0.76300001
-0.35428739	-0.00234507	0.76400006
-0.35210079	-0.00234507	0.76400006
-0.3496463	-0.00238804	0.77800006
-0.34786618	-0.00239111	0.77900004
-0.34563667	-0.00239111	0.77900004
-0.34296632	-0.00238804	0.77800006
-0.34073964	-0.00238804	0.77800006
-0.33851299	-0.00238804	0.77800006
-0.33585408	-0.00238497	0.77700001
-0.3286421	-0.00239725	0.78100002
-0.32640684	-0.00239725	0.78100002
-0.32375655	-0.00239418	0.78000003
-0.32111195	-0.00239111	0.77900004
-0.31806371	-0.00238497	0.77700001
-0.31502697	-0.00237884	0.77500004
-0.31079078	-0.00236349	0.77000004
-0.30818626	-0.00236042	0.76900005
-0.30518955	-0.00235428	0.76700002
-0.29743612	-0.00234507	0.76400006
-0.29087636	-0.00234507	0.76400006
-0.28831187	-0.002342	0.76300001
-0.28650317	-0.00234507	0.76400006
-0.28431657	-0.00234507	0.76400006
-0.28212997	-0.00234507	0.76400006
-0.27994338	-0.00234507	0.76400006
-0.27775681	-0.00234507	0.76400006
-0.27374145	-0.00234814	0.76500005
-0.27155203	-0.00234814	0.76500005
-0.25719815	-0.00231745	0.75500005
-0.25469953	-0.00231438	0.75400001
-0.25220662	-0.00231131	0.75300002
-0.24971944	-0.00230824	0.75200003
-0.24756719	-0.00230824	0.75200003
-0.24508862	-0.00230517	0.75100005
-0.24293922	-0.00230517	0.75100005
-0.24046923	-0.0023021	0.75000006
-0.23832271	-0.0023021	0.75000006
-0.23617619	-0.0023021	0.75000006
-0.2343417	-0.00230517	0.75100005
-0.23219232	-0.00230517	0.75100005
-0.23034924	-0.00230824	0.75200003
-0.2288039	-0.00231438	0.75400001
-0.18920468	-0.00230517	0.75100005
-0.18680625	-0.0023021	0.75000006
-0.18465972	-0.0023021	0.75000006
-0.18251319	-0.0023021	0.75000006
-0.18012618	-0.00229903	0.74900001
-0.17798252	-0.00229903	0.74900001
-0.17583886	-0.00229903	0.74900001
-0.17369519	-0.00229903	0.74900001
-0.17155156	-0.00229903	0.74900001
-0.16940789	-0.00229903	0.74900001
-0.16726424	-0.00229903	0.74900001
-0.16512057	-0.00229903	0.74900001
-0.16297692	-0.00229903	0.74900001
-0.16083325	-0.00229903	0.74900001
-0.1586896	-0.00229903	0.74900001
-0.15654595	-0.00229903	0.74900001
-0.15440229	-0.00229903	0.74900001
-0.15225863	-0.00229903	0.74900001
-0.15011497	-0.00229903	0.74900001
-0.14797132	-0.00229903	0.74900001
-0.14582765	-0.00229903	0.74900001
-0.143684	-0.00229903	0.74900001
-0.14154035	-0.00229903	0.74900001
-0.13939668	-0.00229903	0.74900001
-0.13725303	-0.00229903	0.74900001
-0.13510936	-0.00229903	0.74900001
-0.13296571	-0.00229903	0.74900001
-0.13082205	-0.00229903	0.74900001
-0.1286784	-0.00229903	0.74900001
-0.12653473	-0.00229903	0.74900001
-0.12439109	-0.00229903	0.74900001
-0.12224743	-0.00229903	0.74900001
-0.12010377	-0.00229903	0.74900001
-0.1179601	-0.00229903	0.74900001
-0.11581644	-0.00229903	0.74900001
-0.11367279	-0.00229903	0.74900001
-0.11152913	-0.00229903	0.74900001
-0.10938548	-0.00229903	0.74900001
-0.10724182	-0.00229903	0.74900001
-0.10509817	-0.00229903	0.74900001
-0.10295451	-0.00229903	0.74900001
-0.10081085	-0.00229903	0.74900001
-0.09866718	-0.00229903	0.74900001
-0.09652352	-0.00229903	0.74900001
-0.09425387	-0.00229596	0.74800003
-0.09211307	-0.00229596	0.74800003
-0.51612723	-0.00014944	0.73900002
-0.51470774	-0.00014964	0.74000001
-0.51258987	-0.00014964	0.74000001
-0.51185161	-0.00015004	0.74200004
-0.50972801	-0.00015004	0.74200004
-0.50760442	-0.00015004	0.74200004
-0.50548077	-0.00015004	0.74200004
-0.50539225	-0.00015065	0.74500006
-0.50393558	-0.00015085	0.74600005
-0.50247318	-0.00015106	0.74700004
-0.50167477	-0.00015146	0.74900001
-0.50019807	-0.00015166	0.75000006
-0.49871564	-0.00015186	0.75100005
-0.49722746	-0.00015207	0.75200003
-0.49507523	-0.00015207	0.75200003
-0.49226752	-0.00015186	0.75100005
-0.4894655	-0.00015166	0.75000006
-0.48731896	-0.00015166	0.75000006
-0.48452556	-0.00015146	0.74900001
-0.48238188	-0.00015146	0.74900001
-0.47959706	-0.00015126	0.74800003
-0.47745627	-0.00015126	0.74800003
-0.47531545	-0.00015126	0.74800003
-0.47380725	-0.00015146	0.74900001
-0.47229335	-0.00015166	0.75000006
-0.47140053	-0.00015207	0.75200003
-0.46924829	-0.00015207	0.75200003
-0.46771717	-0.00015227	0.75300002
-0.46679863	-0.00015267	0.75500005
-0.46463782	-0.00015267	0.75500005
-0.46370205	-0.00015308	0.75700003
-0.46153554	-0.00015308	0.75700003
-0.45997578	-0.00015328	0.75800002
-0.45780638	-0.00015328	0.75800002
-0.45563698	-0.00015328	0.75800002
-0.4501074	-0.00015288	0.75600004
-0.44794372	-0.00015288	0.75600004
-0.44519034	-0.00015267	0.75500005
-0.44302955	-0.00015267	0.75500005
-0.44086871	-0.00015267	0.75500005
-0.43870786	-0.00015267	0.75500005
-0.43654704	-0.00015267	0.75500005
-0.43496153	-0.00015288	0.75600004
-0.43279785	-0.00015288	0.75600004
-0.43063417	-0.00015288	0.75600004
-0.42847049	-0.00015288	0.75600004
-0.42630675	-0.00015288	0.75600004
-0.42414308	-0.00015288	0.75600004
-0.4219794	-0.00015288	0.75600004
-0.41981572	-0.00015288	0.75600004
-0.41654712	-0.00015247	0.75400001
-0.4143891	-0.00015247	0.75400001
-0.41168442	-0.00015227	0.75300002
-0.40898547	-0.00015207	0.75200003
-0.40629223	-0.00015186	0.75100005
-0.40414289	-0.00015186	0.75100005
-0.4014582	-0.00015166	0.75000006
-0.39877924	-0.00015146	0.74900001
-0.39663559	-0.00015146	0.74900001
-0.39449191	-0.00015146	0.74900001
-0.39234829	-0.00015146	0.74900001
-0.39072558	-0.00015166	0.75000006
-0.38857907	-0.00015166	0.75000006
-0.38746303	-0.00015207	0.75200003
-0.38531077	-0.00015207	0.75200003
-0.38366804	-0.00015227	0.75300002
-0.38252631	-0.00015267	0.75500005
-0.38086927	-0.00015288	0.75600004
-0.37970743	-0.00015328	0.75800002
-0.377538	-0.00015328	0.75800002
-0.37586382	-0.00015348	0.75900006
-0.37418386	-0.00015368	0.76000005
-0.37200874	-0.00015368	0.76000005
-0.3703202	-0.00015389	0.76100004
-0.36814222	-0.00015389	0.76100004
-0.36596423	-0.00015389	0.76100004
-0.36378622	-0.00015389	0.76100004
-0.36208338	-0.00015409	0.76200002
-0.3599025	-0.00015409	0.76200002
-0.35772163	-0.00015409	0.76200002
-0.3550742	-0.00015389	0.76100004
-0.35335994	-0.00015409	0.76200002
-0.35117906	-0.00015409	0.76200002
-0.34945619	-0.00015429	0.76300001
-0.34727246	-0.00015429	0.76300001
-0.30439377	-0.0001547	0.76500005
-0.29962268	-0.00015449	0.76400006
-0.29524952	-0.00015449	0.76400006
-0.29267931	-0.00015429	0.76300001
-0.2904956	-0.00015429	0.76300001
-0.28831187	-0.00015429	0.76300001
-0.28650317	-0.00015449	0.76400006
-0.28431657	-0.00015449	0.76400006
-0.28212997	-0.00015449	0.76400006
-0.27994338	-0.00015449	0.76400006
-0.27775681	-0.00015449	0.76400006
-0.27557021	-0.00015449	0.76400006
-0.27338362	-0.00015449	0.76400006
-0.27119702	-0.00015449	0.76400006
-0.25503734	-0.00015267	0.75500005
-0.25254154	-0.00015247	0.75400001
-0.2500515	-0.00015227	0.75300002
-0.24756719	-0.00015207	0.75200003
-0.24508862	-0.00015186	0.75100005
-0.24293922	-0.00015186	0.75100005
-0.24046923	-0.00015166	0.75000006
-0.23832271	-0.00015166	0.75000006
-0.23617619	-0.00015166	0.75000006
-0.23402967	-0.00015166	0.75000006
-0.23188315	-0.00015166	0.75000006
-0.23004293	-0.00015186	0.75100005
-0.22819701	-0.00015207	0.75200003
-0.22604477	-0.00015207	0.75200003
-0.18920468	-0.00015186	0.75100005
-0.1870553	-0.00015186	0.75100005
-0.18465972	-0.00015166	0.75000006
-0.18251319	-0.00015166	0.75000006
-0.18012618	-0.00015146	0.74900001
-0.17798252	-0.00015146	0.74900001
-0.17583886	-0.00015146	0.74900001
-0.17369519	-0.00015146	0.74900001
-0.17155156	-0.00015146	0.74900001
-0.1691817	-0.00015126	0.74800003
-0.16726424	-0.00015146	0.74900001
-0.16512057	-0.00015146	0.74900001
-0.16297692	-0.00015146	0.74900001
-0.16083325	-0.00015146	0.74900001
-0.1586896	-0.00015146	0.74900001
-0.15654595	-0.00015146	0.74900001
-0.15440229	-0.00015146	0.74900001
-0.15225863	-0.00015146	0.74900001
-0.15011497	-0.00015146	0.74900001
-0.14797132	-0.00015146	0.74900001
-0.14582765	-0.00015146	0.74900001
-0.143684	-0.00015146	0.74900001
-0.14154035	-0.00015146	0.74900001
-0.13939668	-0.00015146	0.74900001
-0.13725303	-0.00015146	0.74900001
-0.13510936	-0.00015146	0.74900001
