# .PCD v0.7 - Point Cloud Data file format
VERSION 0.7
FIELDS x y z
SIZE 4 4 4
TYPE F F F
COUNT 1 1 1
WIDTH 2001
HEIGHT 1
VIEWPOINT 0 0 0 1 0 0 0
POINTS 2001
DATA ascii
-207.40 81.76 -99.94
143.06 181.86 -7.12
147.30 148.48 1.16
-7.63 -24.92 -60.49
-227.76 -40.19 211.44
-28.38 -154.22 116.76
89.21 -305.88 51.46
21.33 -129.27 12.68
-276.13 -40.20 159.52
234.15 165.32 24.31
120.45 152.32 -22.24
24.64 -131.93 -42.80
19.00 -126.49 -13.13
42.41 -321.29 100.40
62.13 -255.26 48.46
-47.83 -335.12 -73.46
-251.04 56.79 -233.13
-240.50 73.50 -139.59
-263.02 76.68 -186.63
131.62 149.45 -101.55
149.25 -137.13 100.83
-46.87 -338.81 -31.16
166.40 1.04 68.03
73.27 30.06 -4.98
132.95 146.50 -80.96
121.74 187.61 -3.58
154.07 3.21 40.58
-182.98 77.23 -87.27
206.51 118.14 77.22
219.94 166.59 15.52
94.23 -118.46 206.15
80.54 -116.73 182.88
56.76 -119.99 138.64
-48.18 -337.60 -27.80
-262.93 76.80 -190.49
38.48 153.31 -95.38
9.99 109.56 -8.58
-184.80 78.96 -108.15
50.00 -116.34 204.96
120.60 152.16 -21.75
141.01 159.03 -60.72
-254.12 59.60 -240.63
184.88 191.02 4.37
42.30 -321.25 98.66
142.73 182.04 -19.13
227.94 162.41 55.74
45.22 -128.28 120.79
49.09 -121.02 9.25
132.70 148.86 -98.15
-246.52 -51.24 133.76
-48.03 -335.20 -76.01
150.51 92.10 -2.98
228.50 169.36 -1.46
137.87 -110.07 268.80
-17.51 -38.04 -83.47
134.04 136.88 -8.36
-48.36 -337.45 -28.22
-46.80 -335.44 -72.44
123.99 -275.90 156.76
-48.43 -334.77 -76.49
138.95 160.44 -67.14
140.68 159.25 -61.22
187.28 192.37 -17.77
167.54 2.05 40.15
109.83 108.86 -69.50
-263.72 72.91 -257.65
114.80 2.47 -69.58
109.19 109.18 -69.08
96.09 -302.58 88.59
-114.78 -23.22 325.70
-24.05 82.88 33.29
163.72 124.09 3.47
137.85 -110.05 268.82
234.33 164.01 30.62
205.06 118.54 96.28
122.64 101.32 14.88
141.27 184.00 -15.20
-229.92 64.29 -125.10
131.33 149.21 -92.91
186.78 190.45 48.36
-47.95 -335.08 -73.34
159.64 0.61 41.93
234.09 165.54 12.77
-241.02 74.08 -130.53
-264.13 72.91 -251.13
-48.23 -335.04 -76.36
32.32 -187.57 126.37
84.31 -125.25 205.38
107.51 -298.46 43.79
-36.36 -155.99 79.17
-29.39 40.12 30.94
182.36 187.32 36.94
143.79 148.66 -72.65
113.40 -141.89 108.30
-8.09 -24.92 -59.36
66.27 -254.89 31.36
57.35 -118.31 171.95
-169.14 105.95 -107.82
-28.41 -154.21 116.46
133.83 136.98 -8.58
-5.57 -9.28 -14.23
94.75 -118.55 204.57
-93.48 5.99 -69.01
207.99 116.99 76.78
151.94 148.75 -39.87
153.48 152.45 -33.85
26.57 -104.34 46.61
-312.32 -54.00 95.12
-224.22 80.13 -198.98
-42.85 -171.98 -37.57
-180.18 77.37 -95.43
37.64 -15.31 35.71
166.48 1.56 4.66
-178.59 89.74 -141.65
47.03 -119.92 195.42
-226.67 -40.34 155.62
111.57 154.68 -83.47
-49.76 -334.02 -77.42
-115.32 -23.65 327.59
43.22 -321.82 98.33
71.24 32.37 -31.65
181.14 187.52 42.50
-263.00 76.68 -186.65
149.87 144.14 -13.97
181.00 187.55 42.75
-48.05 -335.11 -76.80
-206.74 82.79 -109.33
226.97 170.60 -0.91
-158.15 101.33 -90.12
75.12 -251.28 101.90
124.00 -275.90 156.65
198.46 159.34 53.64
54.66 -122.40 137.77
64.92 35.42 -48.34
133.28 146.35 -81.58
50.16 129.55 -100.92
142.07 182.87 22.33
181.14 187.46 42.52
-241.24 82.55 -167.06
127.78 -291.50 30.54
142.57 149.01 -67.44
131.32 148.39 -70.18
107.56 -298.79 46.77
38.28 -130.24 -37.90
28.49 -102.93 27.50
133.35 -4.07 8.29
136.74 146.01 -42.80
-263.74 75.07 -279.83
78.86 -131.68 173.00
49.60 -177.32 6.02
-266.10 78.73 -196.91
149.85 144.23 -14.53
-209.67 -44.98 184.13
-115.19 -23.75 328.14
35.40 -110.67 120.95
120.27 152.36 -21.11
32.08 -187.35 122.80
127.62 187.02 -4.00
149.15 1.95 39.54
153.92 5.36 6.28
-250.50 -52.40 138.65
-45.99 -338.84 -35.22
149.00 144.96 -22.78
147.78 96.20 -39.19
-47.60 -335.12 -78.63
-317.36 -50.70 81.51
69.22 41.00 -62.94
-241.00 65.37 -160.23
-264.19 73.05 -251.37
159.70 0.59 41.87
181.67 187.25 37.96
146.57 181.20 -30.27
139.43 143.93 -44.27
132.68 147.44 -74.03
50.42 -118.81 144.90
-230.97 -43.32 174.81
-46.73 -338.44 -36.65
129.77 159.15 29.76
137.33 -109.11 254.07
73.26 -125.63 172.15
227.13 170.89 -4.45
49.69 128.37 -89.14
108.98 154.66 -63.40
60.98 -304.81 75.38
-191.56 72.51 -83.57
116.17 128.59 1.86
159.26 0.85 41.69
164.90 -168.92 31.35
107.78 154.00 -55.66
152.95 4.45 33.32
-240.26 73.41 -140.42
150.60 4.33 42.65
-26.40 -155.97 114.10
-260.47 73.23 -279.74
179.81 188.90 29.33
-73.20 -48.51 -22.95
-264.08 77.64 -189.83
107.80 99.48 -30.06
183.07 190.04 -1.65
-253.72 59.04 -240.94
124.22 -276.01 156.44
181.66 187.14 41.59
-317.97 -50.79 82.09
-30.10 -152.80 109.86
148.61 98.76 -40.94
89.21 -8.68 12.30
36.98 -111.80 118.96
-276.12 -40.14 158.64
31.63 -119.45 155.34
58.18 -118.80 172.07
137.80 -110.04 268.87
182.18 187.39 37.07
81.29 -8.58 -32.58
69.12 -129.09 198.78
137.68 -109.98 269.00
-32.12 88.99 -18.13
153.81 3.26 40.55
133.30 147.34 -71.96
137.68 -109.98 269.01
83.87 -125.04 205.98
-27.17 -294.01 -31.47
-24.00 82.90 32.65
-225.48 -42.34 174.84
-224.65 80.34 -198.17
-48.42 -337.43 -28.17
96.07 -302.57 88.67
-120.88 85.96 13.84
-313.46 -53.16 94.00
14.12 -95.98 -19.34
-206.50 82.67 -110.01
-5.58 -9.28 -14.22
138.35 144.16 -31.83
17.99 110.09 26.38
167.38 0.72 65.47
182.19 186.73 41.26
-279.44 -47.04 189.15
-10.94 -25.79 -69.81
103.57 45.06 60.16
132.64 146.76 -80.45
154.09 3.21 40.57
-317.04 -52.91 115.87
9.08 -128.43 -31.27
133.62 147.21 -72.48
23.67 -294.07 -22.91
-264.14 73.02 -253.27
-263.89 77.54 -187.21
-259.55 73.75 -282.88
164.95 -169.30 32.01
235.24 165.20 22.03
14.11 -95.97 -19.39
-24.15 83.02 29.15
-198.30 82.39 -167.65
-128.83 89.64 -61.62
120.06 188.19 1.21
49.32 -177.18 5.87
78.56 -252.25 95.13
69.42 35.19 -34.01
-246.81 -50.97 130.59
137.88 -110.06 268.66
88.98 -305.71 49.98
133.33 147.34 -72.08
141.30 184.00 -15.35
146.83 181.10 -31.03
83.07 -124.76 222.96
-46.43 -335.88 -73.80
69.40 126.30 -18.98
181.31 187.41 38.60
88.98 -305.71 49.98
64.27 3.35 26.65
187.10 192.37 -15.96
-225.99 -41.11 157.50
-316.39 -52.82 112.46
134.04 136.89 -8.44
31.99 -187.60 123.78
-166.78 105.11 -113.91
-161.05 106.58 -138.87
-190.16 91.17 -89.44
143.00 181.87 -6.96
-186.33 78.43 -93.54
-234.10 76.82 -175.45
-262.96 76.57 -188.10
180.45 187.84 38.11
131.66 149.38 -100.52
-48.49 -337.41 -27.84
-317.31 -52.70 110.56
-279.27 -46.84 194.45
81.53 -8.64 -33.87
-259.49 73.62 -281.05
182.68 186.96 36.31
65.78 35.19 -47.93
179.91 188.93 27.74
180.50 187.95 43.49
149.84 144.15 -13.72
182.32 187.32 37.46
131.22 148.76 -73.59
154.71 184.00 3.80
-231.31 77.89 -195.66
182.16 187.40 37.11
179.94 188.07 45.99
142.05 182.48 -17.67
-187.65 93.41 -113.98
-260.04 73.70 -269.42
25.73 61.60 -16.80
-231.32 77.89 -195.00
182.03 186.92 41.26
141.40 158.89 -61.53
-279.43 -46.84 197.65
-46.63 -338.93 -31.22
140.56 -110.19 256.34
-225.76 -42.18 174.59
-279.46 -47.03 189.17
-24.13 83.01 29.08
141.10 159.01 -61.28
-317.39 -50.69 81.56
131.23 148.75 -73.60
131.64 149.39 -100.50
21.56 -125.66 6.65
-264.49 73.08 -250.70
-261.66 71.28 -256.09
14.80 25.71 -96.35
-231.34 77.90 -195.60
21.56 -125.66 6.65
69.33 -129.14 197.60
113.52 -141.92 107.94
182.16 187.40 37.11
84.72 -124.36 201.97
184.05 191.90 -14.52
181.49 187.26 41.23
-251.10 56.83 -233.59
-213.21 87.41 -161.96
142.80 2.20 10.71
89.21 -8.62 11.83
142.08 182.44 -17.35
144.11 181.48 -10.10
52.27 127.56 -91.78
139.69 147.32 -45.97
50.72 127.49 -84.50
141.71 152.36 -39.62
46.26 -119.77 197.36
-279.30 -46.83 194.50
-226.38 -41.84 174.85
89.24 -8.66 11.83
146.67 181.17 -31.18
-120.22 85.65 12.98
131.26 148.72 -73.29
-262.93 76.80 -190.46
179.07 190.65 9.95
37.20 -111.99 122.89
165.60 -169.30 34.34
181.51 187.33 38.08
80.96 -8.24 -33.58
-215.88 79.67 -111.45
-181.57 78.61 -102.70
137.15 -109.02 254.27
-211.60 -34.87 217.11
133.19 133.05 -31.83
46.05 -119.65 197.71
181.51 187.33 38.09
-163.70 104.95 -115.06
-313.24 -50.82 86.57
-301.46 -51.99 111.51
133.55 147.14 -74.17
-183.73 77.41 -107.84
-181.56 78.61 -102.68
71.20 126.04 -20.22
145.67 146.64 0.82
181.50 187.33 38.10
148.85 -177.98 -37.64
-246.84 -52.05 116.47
143.03 181.86 -7.03
-113.23 -24.91 323.48
-48.09 -335.18 -75.79
-169.00 105.29 -102.03
-263.46 72.54 -259.00
-224.30 80.15 -198.90
-66.42 -334.42 -77.73
141.14 159.00 -61.38
71.13 33.17 -6.68
187.24 159.48 23.70
-18.47 -214.15 -190.56
131.36 148.63 -74.35
-313.81 -52.91 94.39
99.21 103.02 -34.97
-48.05 -337.55 -28.90
140.67 149.24 -58.74
185.43 190.36 58.41
228.54 169.38 9.10
180.63 187.77 37.88
-313.57 -53.04 96.51
66.02 -254.36 29.07
153.96 3.26 41.66
-63.98 -332.75 -95.84
226.87 170.65 -1.00
-231.78 78.16 -195.31
48.88 -177.05 7.20
-184.75 77.82 -107.82
-317.33 -52.71 110.79
131.70 149.37 -100.57
233.96 165.94 17.41
44.75 -123.92 82.90
-226.12 82.90 -200.71
-279.23 -47.15 189.19
159.66 0.65 41.24
-48.86 -337.21 -27.74
-249.84 70.38 -167.26
219.95 166.56 15.89
-252.54 70.89 -233.33
227.07 170.93 -4.73
142.12 182.45 -17.70
-31.69 -295.10 -55.30
58.32 -122.07 135.96
-211.80 80.17 -132.41
142.48 155.46 -69.40
132.75 148.38 -96.65
43.15 -321.66 97.64
131.35 149.29 -94.71
-113.18 -24.90 323.11
140.01 -109.86 255.90
-250.14 -49.34 180.68
79.34 118.15 -44.52
24.31 -131.47 -48.16
180.95 187.57 42.82
-317.23 -52.48 110.33
137.75 131.81 -43.00
66.56 -254.79 20.32
140.33 142.68 -46.46
107.55 -298.78 46.78
227.15 170.76 0.26
57.24 -118.28 172.07
-20.99 -211.89 -200.72
-168.11 105.21 -99.26
-277.91 -47.77 194.27
-235.98 77.26 -171.36
83.34 -124.93 222.41
41.74 -8.63 -99.91
-231.10 77.33 -149.10
158.73 -179.16 42.57
151.01 145.10 -24.61
-4.05 -8.29 -43.69
-47.59 -335.63 -75.90
-247.06 -51.96 116.78
-114.24 -24.61 321.66
82.99 -123.11 199.55
159.99 0.48 41.20
90.37 -117.73 218.94
131.32 148.67 -74.61
227.15 170.76 0.25
80.51 -169.56 49.85
-41.88 -331.42 -59.51
-113.62 -24.72 321.15
127.64 187.02 -4.10
61.40 -119.26 162.64
82.69 -124.46 222.26
112.63 -298.70 19.61
-317.60 -52.10 107.80
77.63 -156.14 13.12
82.29 -124.26 219.03
219.23 167.33 11.04
-276.12 -40.15 158.54
-280.03 -46.41 190.78
147.49 -136.02 94.60
-312.63 -52.41 99.24
141.48 183.15 24.41
144.16 134.52 15.92
148.95 -135.12 29.53
129.02 132.02 -81.37
-167.67 104.87 -99.30
79.69 117.93 -44.55
45.15 -128.25 120.68
143.61 -171.80 -64.13
181.65 187.92 35.62
122.68 101.32 14.59
82.56 -122.49 181.39
150.04 144.38 -20.28
-215.23 78.34 -113.94
-62.48 -334.43 -98.97
-66.35 -334.46 -77.65
144.98 -170.96 9.54
-251.32 56.91 -233.46
-48.06 -335.24 -72.70
69.35 40.93 -63.20
167.93 0.41 68.12
80.42 -8.07 -29.58
234.36 164.02 30.23
133.48 147.18 -74.10
205.15 118.51 96.15
43.97 -318.83 60.50
111.98 -141.06 104.94
120.12 -276.56 121.55
-109.55 -24.27 304.62
140.36 143.06 -32.38
-48.50 -337.28 -28.36
-231.80 78.17 -195.30
153.00 4.45 33.14
-48.08 -334.94 -74.26
122.83 101.24 14.61
205.82 118.18 95.47
139.65 147.34 -45.92
93.96 -116.52 189.82
79.63 -171.87 21.85
-47.63 -335.10 -78.67
66.73 -254.85 24.49
37.22 -14.86 33.17
89.18 -305.85 51.20
122.90 101.18 14.48
200.32 161.33 -7.27
28.33 -102.88 27.73
-29.31 40.15 30.01
141.65 159.47 -73.49
134.12 147.62 -76.25
132.73 146.76 -81.34
-261.77 73.95 -280.90
139.19 143.63 -29.73
-263.66 73.08 -259.02
155.53 136.89 -4.39
104.50 49.18 26.44
139.26 143.60 -29.71
143.09 148.66 -73.26
-240.74 82.39 -170.87
26.71 -293.08 -39.98
182.78 186.87 36.60
32.84 -131.60 1.25
-154.94 98.95 -58.67
90.19 -116.53 68.99
-169.96 106.38 -108.36
-18.55 -214.19 -189.72
-196.02 81.07 -167.53
-275.76 -40.57 162.64
138.99 160.45 -67.75
137.54 131.87 -43.34
180.46 189.95 6.12
-238.23 67.40 -191.37
-153.49 100.72 -63.47
140.68 -110.21 255.77
187.43 190.14 48.00
218.60 167.70 9.78
109.09 109.40 -75.42
-5.49 -212.08 -146.55
149.27 144.60 -18.02
46.38 -119.79 197.05
234.90 163.70 30.67
-315.68 -52.35 98.13
164.03 150.60 -54.18
-318.11 -50.72 81.92
-69.47 88.58 -14.33
64.28 32.92 -14.71
103.91 44.84 59.60
-279.65 -46.69 183.14
138.67 -109.29 266.09
145.64 182.54 -31.27
-263.93 77.61 -188.27
-50.76 -154.39 32.07
131.28 148.68 -74.50
175.34 18.30 65.63
132.21 148.75 -96.95
-46.58 -335.61 -72.12
-207.26 82.29 -101.93
140.88 156.26 -69.22
187.03 159.53 24.89
185.37 190.38 58.49
-47.79 -335.00 -78.19
93.74 -118.12 204.61
131.29 148.65 -73.53
98.89 103.31 -37.41
-186.85 89.83 -92.88
132.17 148.76 -96.89
-278.84 -47.15 195.33
146.09 -5.77 18.24
-21.58 81.80 25.38
-5.59 -212.03 -146.46
-167.26 103.74 -100.62
121.09 151.81 -21.21
181.53 187.33 37.98
104.10 115.34 -81.77
229.00 169.32 -1.61
-48.72 -156.06 35.95
74.47 29.42 -6.73
35.22 -110.60 120.96
-240.81 82.17 -176.37
32.68 -189.84 145.48
-48.00 -335.22 -76.07
-16.15 -38.62 -88.49
-317.02 -52.92 116.23
-279.28 -46.83 194.40
119.51 193.02 -41.55
-180.24 77.40 -95.57
-183.72 77.38 -107.56
145.48 146.68 4.47
76.93 119.56 -38.74
119.51 193.03 -41.53
-225.16 -40.48 147.03
-51.54 -14.50 -63.29
182.45 186.88 36.80
-300.86 -52.03 109.20
153.00 4.42 33.43
-312.69 -52.33 97.06
-183.51 77.74 -90.16
-167.61 104.89 -99.60
144.04 147.99 -69.33
43.56 -321.98 98.07
167.65 0.00 69.24
-260.02 73.93 -281.60
-153.56 100.76 -63.58
218.36 167.80 9.84
-231.14 77.86 -196.18
-311.19 -48.16 74.86
54.06 -122.05 137.40
49.67 128.46 -89.89
76.36 -129.02 -17.95
-270.21 -43.41 101.44
200.52 161.26 -7.91
-280.26 -46.80 189.59
-231.26 77.88 -196.04
120.19 188.27 -4.70
-254.90 60.10 -244.08
-241.10 65.38 -159.88
81.32 -8.59 -32.57
-198.92 82.13 -172.85
-318.51 -51.57 105.00
-241.87 81.42 -164.18
127.09 -291.20 31.19
-231.24 77.90 -196.21
82.14 -122.24 179.56
82.85 -123.06 199.50
219.20 167.34 11.05
20.90 -129.90 18.97
62.10 -255.25 48.52
122.69 101.30 14.81
-169.17 106.05 -109.44
205.73 118.21 95.56
137.83 146.49 -53.48
-46.99 -338.77 -30.68
-167.28 105.43 -116.76
137.48 131.82 -41.63
-315.26 -52.46 101.04
-51.76 -14.47 -62.60
79.65 -171.83 20.80
153.53 3.47 46.07
207.60 117.20 76.55
142.58 149.04 -67.91
-31.92 -151.85 88.11
-263.87 73.14 -259.45
143.27 148.68 -74.25
-314.43 -52.94 90.02
119.47 193.04 -41.41
-211.99 80.10 -127.36
174.42 147.80 -11.06
140.70 -110.21 255.63
122.95 101.24 13.26
-31.22 37.76 47.61
139.23 143.98 -43.43
-183.37 77.69 -90.48
142.81 181.96 -6.68
109.26 109.17 -69.42
-261.28 73.57 -280.29
-259.58 73.71 -281.82
81.12 -119.10 205.88
-32.17 88.99 -17.90
140.55 152.40 -78.69
122.74 101.29 14.75
157.62 -178.51 45.14
-279.24 -46.49 180.47
-47.81 -335.30 -76.38
-156.36 98.80 -50.99
56.80 -120.00 138.53
93.89 -116.49 190.12
-13.54 -146.44 -53.97
90.49 -117.77 218.94
131.97 147.28 -82.88
143.08 181.87 -7.44
182.80 186.67 37.07
-196.15 81.11 -166.94
48.56 -176.81 6.65
66.33 -254.66 29.25
11.37 -126.59 -56.88
108.43 -115.04 193.00
-191.37 72.48 -85.00
14.86 25.70 -96.60
120.79 151.95 -20.87
151.82 148.80 -39.79
127.70 187.01 -4.18
-264.05 72.68 -254.01
167.30 -169.21 21.53
-47.72 -335.10 -78.27
-48.70 -337.30 -27.81
184.08 191.21 61.62
216.46 164.84 21.35
-250.92 56.72 -234.14
158.57 -179.07 42.76
50.85 127.47 -85.21
142.55 182.68 20.97
150.03 -137.59 92.80
-198.33 77.19 -138.17
143.27 148.68 -74.26
134.42 146.53 -72.19
-23.75 111.92 -33.10
109.84 108.57 -67.35
-278.50 -47.31 195.11
141.75 152.35 -39.82
-251.90 70.72 -234.89
-31.05 -295.27 -56.86
60.42 -122.48 156.41
140.02 -109.88 256.64
36.13 -132.25 -36.77
137.76 146.53 -53.56
82.17 -122.24 179.08
-63.10 -333.33 -91.75
-36.27 -156.05 80.30
-317.36 -51.20 86.73
38.09 -130.07 -38.48
-46.85 -336.36 -61.32
-48.23 -335.18 -72.63
-20.34 37.56 52.94
143.99 -181.08 -50.18
49.60 128.48 -89.74
219.96 166.60 15.37
188.16 189.95 -2.69
-47.13 -335.24 -73.68
-48.69 -337.11 -31.05
131.54 148.54 -74.31
14.60 -95.96 -21.60
-262.79 76.82 -186.63
68.09 34.74 -42.97
120.50 -278.39 136.49
-46.04 -339.33 -30.24
-187.81 90.89 -97.06
-249.62 70.28 -167.64
-114.12 -24.79 327.89
-226.80 -40.27 155.31
-196.62 81.43 -170.35
-264.68 77.82 -183.90
-300.19 -52.45 111.88
-20.94 -211.86 -201.30
184.82 159.39 -22.32
-27.85 83.73 -40.41
133.07 148.17 -76.55
138.91 160.48 -67.45
-216.05 79.72 -110.78
149.71 144.51 -19.91
14.60 -95.93 -21.98
-21.72 81.86 25.59
69.20 41.44 -74.73
149.04 2.18 38.20
-262.68 76.97 -191.77
44.86 -128.14 122.36
-240.04 65.01 -156.21
77.50 119.01 -36.64
120.26 152.58 -22.90
-130.08 92.34 -97.94
137.77 146.53 -53.59
234.46 163.95 30.58
142.41 182.76 20.98
111.38 -276.83 134.70
148.05 7.34 35.04
54.22 -117.34 130.65
-30.46 -152.61 109.73
-23.91 82.78 33.62
120.22 152.46 -24.59
46.16 -119.88 189.80
79.86 -171.92 19.87
-262.14 76.18 -189.63
234.74 165.54 23.53
162.07 124.75 5.10
-312.74 -52.34 97.41
75.05 -116.25 173.68
-115.26 -23.70 327.89
135.78 146.48 -42.35
84.11 -175.12 35.06
-264.68 77.82 -183.90
92.46 -117.54 203.96
-249.68 -50.24 114.52
-130.63 92.42 -96.21
180.25 188.04 44.46
-27.20 -294.03 -31.13
54.37 -123.89 146.56
81.48 -8.63 -35.17
-216.09 79.72 -110.53
92.48 -116.48 58.10
-167.59 104.58 -101.73
57.85 -118.61 171.73
-226.16 -40.52 153.92
-251.04 56.79 -233.78
45.86 -119.60 198.69
-202.40 85.85 -146.34
-20.09 -213.51 -191.06
143.51 -171.73 -62.36
159.72 0.59 41.80
-62.47 -334.64 -94.74
32.14 -187.34 120.96
30.05 64.26 -15.65
145.33 182.67 -30.79
-264.43 73.15 -251.34
131.03 149.41 -93.87
-226.24 -40.79 156.80
59.02 -118.10 159.00
140.55 160.02 -73.50
132.36 148.61 -77.70
78.17 -156.84 10.96
138.60 -109.25 266.00
-207.81 82.54 -101.48
131.13 149.39 -94.10
24.70 -131.64 -45.43
-198.33 82.42 -167.91
14.08 -95.94 -19.66
168.59 180.41 -16.95
-20.89 -211.89 -201.26
-23.42 111.78 -33.78
147.37 -134.57 48.74
30.16 64.09 -14.81
129.81 159.14 29.71
-233.18 76.74 -185.60
138.63 160.62 -65.03
65.87 -254.44 25.42
231.88 167.00 13.93
-46.95 -338.37 -36.20
-51.60 -14.44 -63.96
182.53 187.24 36.67
141.51 -10.32 14.96
-47.72 -335.49 -70.13
141.29 158.91 -61.34
-7.43 -24.94 -62.33
138.64 -109.27 266.06
80.31 -119.17 233.84
144.12 181.48 -10.27
155.47 136.95 -5.07
141.06 184.31 -16.87
141.06 184.31 -16.87
-47.82 -334.99 -78.21
-64.29 -332.61 -97.33
-247.10 -51.94 116.75
-47.67 -335.56 -75.94
144.25 180.81 -10.08
-51.63 -14.40 -64.29
148.98 2.19 38.30
69.44 35.21 -34.42
-277.91 -47.59 194.02
88.65 -122.01 188.03
94.03 -116.56 189.94
139.72 147.30 -45.79
133.28 146.35 -81.64
179.95 188.03 46.52
133.04 148.17 -76.46
139.24 161.65 -75.42
138.88 160.48 -67.36
-18.39 -214.24 -189.88
-226.55 78.66 -180.06
88.67 -122.04 188.24
-312.41 -52.51 98.71
132.84 148.28 -96.14
143.12 149.81 -62.40
142.16 2.35 12.49
107.53 -298.78 46.80
-250.69 57.08 -235.47
132.64 146.75 -80.23
132.09 148.87 -98.26
152.80 4.40 34.74
-317.37 -52.47 107.30
43.55 -321.98 98.09
33.02 -136.08 -30.23
-315.82 -53.71 102.50
82.90 -171.31 31.28
119.87 192.79 -40.54
-93.71 6.15 -69.92
-23.42 111.78 -33.79
83.04 -124.80 222.77
-315.91 -51.98 70.71
-183.61 90.18 -107.91
148.30 98.93 -41.06
205.11 119.05 73.40
45.23 -319.80 60.78
-262.05 76.12 -187.94
-29.37 40.11 33.17
131.43 148.61 -74.20
181.63 187.30 41.96
-45.42 -337.25 -60.62
140.59 159.33 -61.88
228.37 169.16 9.06
14.59 -95.95 -21.69
9.95 109.57 -8.52
152.75 3.53 49.22
-280.26 -46.80 189.57
-36.32 -156.03 80.23
-309.22 -51.52 92.76
57.84 -118.60 171.39
-264.54 77.81 -185.16
187.13 190.32 5.08
30.72 -133.73 -35.96
46.67 -119.57 191.59
227.68 170.45 4.76
139.71 143.49 -30.75
-284.33 -47.37 179.67
89.28 -8.72 11.98
-226.22 -40.79 156.72
-18.27 -214.30 -189.74
140.00 160.39 -71.97
140.33 159.36 -61.81
206.95 117.53 79.43
138.71 160.61 -65.23
228.52 161.98 60.28
32.04 -187.30 121.06
-34.19 88.91 -5.06
167.39 0.78 64.20
148.72 144.93 -20.88
77.11 119.40 -38.24
47.73 -320.81 61.60
-315.63 -52.21 91.64
-264.69 77.83 -183.88
77.24 119.29 -37.33
180.62 187.87 43.86
61.03 -304.83 75.30
12.61 -95.14 -25.08
18.88 -330.82 45.44
-157.63 99.45 -50.37
147.29 -135.95 94.82
-18.63 -214.14 -189.23
159.20 1.01 40.43
58.71 -122.22 156.31
179.85 188.44 44.29
65.86 -126.32 167.00
120.42 -278.34 136.24
144.19 180.49 -11.31
-252.78 71.08 -233.79
-33.65 -293.58 -52.49
-191.14 72.31 -84.19
-226.00 -42.04 174.83
73.37 30.08 -6.07
138.58 -109.26 266.16
145.56 182.56 -31.20
-229.41 74.95 -166.52
69.16 128.41 -29.01
37.01 -111.80 118.89
-19.58 -212.93 -189.56
169.14 0.77 53.91
144.02 180.61 -5.94
184.93 159.34 -22.29
-187.48 93.32 -113.81
133.36 146.33 -81.73
-173.21 97.74 -98.08
127.48 187.09 -4.16
50.06 129.56 -99.95
-47.95 -335.30 -73.28
182.36 187.09 37.93
223.44 168.75 34.80
82.74 -124.48 222.16
-183.55 77.76 -90.18
24.26 -131.48 -47.79
35.74 -132.29 -33.99
79.44 -118.83 238.19
129.89 157.81 37.99
-315.89 -53.69 102.72
127.19 186.98 -2.16
-315.62 -52.21 91.58
-168.04 105.11 -98.87
37.01 -111.80 118.89
57.79 -118.58 171.43
133.18 133.09 -32.23
-18.88 -213.98 -189.73
228.44 169.17 8.12
-47.01 -335.92 -68.73
-33.41 -151.01 88.58
81.55 -8.76 -25.31
48.16 112.96 -87.54
-317.49 -52.64 108.56
-264.66 77.81 -183.93
-237.44 75.50 -194.41
181.94 187.04 41.32
126.13 102.52 0.92
48.33 129.21 -86.44
-51.77 -153.94 39.20
-264.08 73.01 -261.34
95.95 -302.20 86.15
141.37 158.54 -55.67
-241.09 74.10 -130.42
14.94 -93.95 -32.40
14.94 -93.95 -32.40
103.65 44.98 60.83
-113.23 -24.75 326.40
155.47 136.98 -5.45
107.72 99.52 -30.16
150.02 -137.55 92.40
142.14 182.43 -17.60
-317.52 -52.14 107.89
132.92 146.54 -81.31
48.46 129.14 -86.24
-47.03 -335.29 -73.63
128.54 -1.33 -44.09
42.60 32.09 -50.09
74.43 30.05 -13.84
188.51 191.08 -7.57
-173.17 97.72 -98.09
32.62 -189.79 145.24
144.98 178.31 25.43
132.69 148.41 -96.73
163.54 124.16 3.43
-30.18 -152.86 107.96
49.65 128.40 -89.33
134.30 131.31 -30.44
41.92 -125.81 116.04
61.37 -119.26 162.78
53.35 -116.60 128.72
219.85 165.64 10.06
75.46 28.28 -49.81
164.48 162.01 -8.76
10.13 109.71 -10.14
33.85 -136.29 -32.36
140.28 142.68 -46.17
42.56 32.10 -49.96
143.86 181.42 -9.39
-179.62 91.14 -152.69
79.72 -123.59 198.97
-49.60 -334.07 -77.57
-252.41 58.58 -248.47
77.70 -156.64 11.18
75.89 -251.58 98.25
36.83 154.51 -99.67
69.27 -129.16 198.55
124.23 -275.97 155.56
135.17 145.96 -71.43
154.74 184.01 3.07
32.61 -187.43 124.95
84.34 -124.29 205.33
140.08 152.65 -78.19
9.44 109.69 -9.80
-48.36 -337.36 -29.58
84.39 -124.34 205.71
-279.21 -46.52 180.74
-215.56 78.50 -113.88
74.14 30.13 -13.66
80.27 -7.97 -29.68
-316.72 -52.75 114.97
80.23 121.03 -14.41
-17.23 -38.12 -85.00
226.60 170.21 12.06
142.73 2.25 10.43
-181.83 78.75 -103.72
-312.38 -52.51 98.62
-114.05 -24.83 328.07
-34.19 88.91 -5.06
49.68 128.37 -89.04
-47.94 -335.09 -73.38
-212.46 -34.23 216.50
79.41 -123.26 195.64
136.00 146.14 -46.43
79.39 -123.23 195.33
-6.74 -211.53 -145.31
-20.61 -212.15 -199.68
-316.28 -47.39 41.91
-211.87 80.20 -132.31
183.18 190.09 -2.27
-241.29 65.63 -160.89
142.81 2.18 10.94
-168.28 105.41 -106.40
-314.44 -53.19 89.05
33.50 -136.09 -32.48
-209.59 -45.00 183.98
142.74 155.29 -68.73
120.60 192.42 -39.28
-279.71 -47.29 185.88
118.69 -277.34 130.42
-317.55 -52.10 107.49
94.15 -118.40 205.92
226.87 170.66 -1.05
-181.60 78.60 -102.45
-183.76 77.40 -107.61
136.82 145.36 -43.81
-196.04 77.80 -145.34
-6.14 -26.29 -56.27
-108.42 -24.81 303.30
-263.37 78.49 -209.59
-279.53 -46.94 182.07
55.51 -124.24 141.83
24.19 -131.41 -48.31
14.57 -96.21 -21.42
141.57 -10.34 14.86
-317.11 -52.93 116.54
-313.76 -52.93 94.41
-279.49 -46.79 197.25
140.16 160.33 -72.00
-240.84 65.36 -160.25
178.04 191.34 2.10
159.36 0.78 42.11
140.60 -9.80 16.11
-20.31 -212.35 -190.95
-22.75 82.23 31.53
-234.96 77.87 -186.50
143.83 181.59 -9.08
45.24 -128.23 120.22
115.52 -140.83 90.25
-231.30 77.90 -195.90
-180.44 77.65 -96.59
-45.63 -339.07 -34.96
142.94 181.35 -11.01
118.66 -276.59 131.95
-206.48 81.69 -99.85
228.45 169.41 9.23
-313.67 -53.01 96.64
-301.14 -51.15 104.83
197.11 161.01 48.14
68.26 42.32 -70.74
162.95 4.84 6.87
206.51 118.66 75.35
129.66 161.03 17.39
-23.56 82.64 29.61
-206.80 82.82 -109.49
45.11 -128.23 120.60
80.99 -8.26 -33.54
-169.40 106.06 -107.39
233.95 165.95 17.36
62.20 -255.26 47.58
-23.57 82.64 29.64
-263.51 77.05 -188.68
41.96 -125.80 115.75
53.92 -122.01 137.58
64.54 -124.49 170.55
81.55 -8.65 -33.80
228.01 162.37 55.60
182.74 158.49 -13.93
143.34 148.65 -74.16
48.45 -176.72 6.56
186.98 190.39 4.92
112.13 -67.72 148.61
111.38 149.11 -84.21
-238.32 67.41 -190.54
-215.90 79.66 -111.22
80.07 -118.56 206.81
182.49 187.00 37.07
32.13 -187.62 123.35
119.70 192.93 -41.70
77.13 119.47 -38.91
88.59 -121.99 188.12
37.27 -14.89 33.36
-200.04 83.76 -173.78
-239.74 64.89 -156.81
-47.55 -335.47 -73.41
9.64 109.82 -11.60
159.01 191.92 -13.96
-195.90 77.75 -145.33
144.38 -172.18 -61.71
-261.67 71.28 -256.03
113.40 -141.90 108.38
16.28 -139.69 124.26
-231.19 77.33 -148.67
-313.24 -50.80 85.74
145.65 182.52 -31.12
-183.60 77.34 -107.65
228.52 169.13 8.30
218.86 166.15 10.49
139.77 143.45 -30.55
19.45 -126.68 -13.64
-264.62 77.78 -185.69
119.49 193.02 -41.37
-180.39 77.56 -95.40
142.85 158.93 -70.20
-264.18 73.05 -253.28
162.78 5.79 2.44
181.66 187.21 38.05
-246.55 -51.22 133.79
113.90 -278.74 142.82
223.23 167.64 31.02
223.23 167.64 31.02
-45.56 -337.08 -59.06
-214.95 79.28 -113.30
-251.98 70.72 -234.40
119.60 -277.84 136.80
-301.47 -54.33 123.52
81.23 -114.68 156.81
139.68 160.95 -65.36
130.92 147.72 -78.92
181.63 187.23 38.10
-264.56 73.45 -258.66
-31.03 88.20 -18.91
153.85 3.24 40.51
45.20 -319.78 60.78
-114.49 -24.05 324.61
113.44 -278.59 143.50
-48.73 -337.28 -27.82
-224.68 80.34 -198.04
163.52 124.17 3.92
-195.94 81.06 -167.75
-211.52 80.28 -135.44
-317.53 -52.33 104.70
235.21 165.20 22.25
133.18 146.43 -81.84
-264.07 72.88 -251.14
-26.65 -155.86 114.38
-315.03 -52.99 90.59
109.06 153.33 -57.33
-264.49 73.09 -250.77
68.73 -151.15 53.89
-24.77 111.83 -27.59
-169.14 106.15 -110.26
-263.20 72.76 -257.81
79.41 -123.26 195.72
-160.20 105.93 -135.29
7.54 -318.94 49.18
-184.07 77.51 -108.64
44.89 -319.48 61.63
9.62 109.82 -11.57
-280.85 -46.31 185.45
134.11 131.45 -31.15
35.28 -110.63 120.95
154.85 4.72 8.55
-317.33 -51.18 86.24
-262.12 76.17 -189.65
-255.07 60.17 -244.04
-279.21 -47.12 185.58
-316.32 -47.38 42.01
109.90 108.83 -69.52
119.64 192.96 -41.32
181.25 187.41 42.37
-157.45 99.31 -49.95
-180.48 77.49 -95.14
9.51 109.87 -11.59
-279.75 -46.88 184.50
-262.84 76.53 -188.11
166.30 1.30 7.45
77.28 119.29 -37.45
-158.30 101.39 -89.11
79.76 -123.60 198.86
67.94 36.07 -37.79
127.66 160.15 22.96
-47.91 -335.01 -77.73
94.53 -116.70 188.81
-113.22 -24.92 323.63
89.14 -305.82 51.06
-317.52 -52.33 104.68
120.12 152.49 -24.43
65.01 35.39 -48.53
-23.89 82.82 32.96
64.35 3.26 27.53
99.15 103.13 -35.69
-113.13 -24.97 323.70
-253.23 58.90 -244.57
-45.78 -339.02 -34.22
68.45 35.30 -38.79
-108.77 -24.61 303.86
-264.15 72.93 -251.10
69.34 126.11 -9.56
46.54 -119.53 191.88
135.34 145.93 -72.10
133.00 148.22 -96.19
49.22 -177.15 6.03
-156.85 98.86 -48.73
127.10 187.03 -2.42
-211.79 80.16 -132.49
92.37 -116.36 55.70
137.88 -110.08 269.05
14.89 -93.88 -32.65
137.88 -110.08 269.06
77.24 119.29 -37.31
79.94 -123.47 199.98
182.52 190.46 -1.91
48.90 112.49 -83.90
-262.51 76.63 -193.28
114.49 -279.44 137.48
-279.02 -46.78 180.33
-264.49 73.09 -250.77
-317.52 -52.61 111.05
142.84 158.93 -70.19
-275.59 -40.31 159.68
65.37 109.34 21.42
150.73 4.26 42.86
75.48 29.57 -17.64
-264.93 74.36 -260.64
-116.46 -22.36 321.41
218.57 166.26 11.24
-262.96 76.67 -186.72
-226.93 82.65 -237.98
-6.79 -211.02 -143.91
-161.37 106.78 -139.60
129.64 159.21 29.66
22.37 -328.05 10.42
151.92 180.61 32.63
93.97 98.60 -86.21
-264.93 74.36 -260.64
72.11 32.10 -33.51
-318.41 -51.62 105.24
185.75 190.66 2.67
-45.32 -337.28 -60.81
68.97 128.44 -27.78
124.06 152.51 -15.48
-21.99 82.01 25.51
-278.79 -47.19 195.66
-215.73 79.54 -110.52
182.11 187.24 36.67
-207.38 81.75 -99.97
-168.78 105.04 -126.17
14.86 -93.84 -33.05
-66.01 -334.56 -78.97
149.90 144.22 -14.64
174.26 147.86 -9.64
-156.70 98.82 -49.53
-246.93 -52.05 117.44
-263.70 72.67 -259.52
18.17 115.94 38.74
65.98 -254.17 25.87
-227.13 79.15 -224.87
183.06 190.14 -2.38
139.96 -109.83 255.87
-215.73 78.58 -113.71
29.50 64.48 -18.16
-231.79 78.15 -195.09
18.80 -330.73 44.60
70.28 34.87 -39.42
-237.99 67.24 -190.62
-264.12 72.93 -249.04
132.67 146.73 -80.16
-315.93 -51.61 93.98
83.82 -124.99 220.34
90.21 -307.01 61.56
-246.95 -50.92 130.72
187.02 159.53 24.91
122.04 191.87 -46.22
-231.25 77.85 -194.95
71.22 126.01 -19.96
180.55 188.12 33.31
-47.99 -334.93 -77.95
142.12 182.42 -17.21
18.92 -126.36 -16.84
-27.52 -292.91 -39.34
-62.78 -334.38 -96.75
-48.73 -334.57 -78.46
-183.67 90.24 -108.30
22.33 -328.05 10.67
177.91 191.37 2.46
143.04 148.66 -73.01
-277.50 -47.78 193.53
48.94 112.50 -84.23
47.06 -119.57 191.21
66.43 -254.74 29.37
142.42 182.19 -8.82
50.76 127.47 -84.51
49.59 -177.32 6.04
227.72 170.42 5.01
150.31 5.91 15.89
-312.30 -51.51 93.81
138.90 160.48 -66.86
38.26 -130.24 -37.87
142.07 182.47 -17.73
234.33 163.73 32.04
-63.66 -333.80 -97.19
142.88 148.91 -69.81
114.00 -279.31 141.21
180.50 188.18 32.79
-264.67 77.83 -184.05
141.13 -110.22 246.60
207.66 117.26 78.38
-23.47 82.60 29.70
152.95 3.87 39.54
-66.46 -334.38 -77.92
-229.97 64.33 -125.36
184.35 191.09 61.17
182.71 159.94 -20.74
69.21 41.00 -62.87
71.90 -115.61 177.99
-20.43 -212.55 -193.54
41.29 -320.69 102.80
-183.67 90.46 -109.21
-315.51 -52.27 91.84
142.84 2.18 10.69
-231.12 77.33 -148.96
131.46 149.47 -99.34
-47.59 -335.65 -75.71
184.47 190.80 13.37
82.87 -124.59 220.61
152.97 4.44 33.39
131.32 148.70 -73.36
133.63 146.96 -69.76
41.06 -126.79 144.34
88.69 -122.02 187.96
143.77 148.15 -69.45
41.06 -126.79 144.34
-224.93 -40.59 147.06
142.81 2.20 10.74
-50.73 -154.44 32.59
-129.76 92.15 -97.72
-213.14 87.35 -161.73
-27.56 83.53 -39.74
182.61 187.18 36.59
-130.53 92.41 -96.59
-278.98 -47.09 195.32
-213.34 -44.51 200.27
-62.76 -334.39 -96.68
140.85 -110.11 247.64
188.18 189.94 -2.81
81.51 -132.07 168.99
-315.97 -53.62 102.24
80.18 -118.61 206.84
182.11 187.24 36.67
-20.03 -213.39 -190.23
150.18 -137.61 92.35
-10.80 -25.81 -70.28
82.02 -117.48 211.84
75.12 -123.74 170.10
-253.09 58.83 -244.42
108.94 154.68 -63.43
-241.11 74.27 -133.62
-215.17 78.34 -114.08
-30.18 -152.76 109.72
223.03 167.73 31.23
166.87 0.96 4.56
-40.07 -332.20 -63.54
115.26 -279.39 136.59
166.75 1.43 4.18
-196.55 81.45 -171.45
-46.92 -338.81 -30.43
55.63 -122.96 135.53
88.59 -121.99 188.07
133.43 147.20 -74.10
219.03 167.46 10.79
140.69 159.96 -73.53
75.22 -123.81 170.51
-317.08 -52.93 116.59
-183.46 77.72 -90.14
145.80 -132.00 34.96
79.22 -157.26 16.08
36.13 -17.55 -35.39
-125.54 90.48 -87.02
27.78 61.66 26.58
84.25 -124.22 204.73
78.13 -252.10 94.02
38.20 -112.41 119.28
133.24 136.18 -85.28
-46.52 -335.65 -71.92
132.59 148.43 -96.55
117.43 127.99 -6.80
-51.12 -14.67 -64.16
74.38 29.47 -6.93
64.77 32.71 -15.50
234.27 165.49 11.85
31.83 -189.22 139.06
-186.11 78.22 -91.90
228.31 169.78 3.13
64.92 35.47 -49.41
27.72 61.67 26.69
166.39 1.18 5.04
31.37 -186.75 123.77
133.32 148.04 -76.65
139.59 143.83 -44.74
140.61 159.25 -60.62
-186.11 78.22 -91.90
-176.46 88.05 -145.95
-46.89 -338.40 -36.20
-239.96 64.95 -155.83
181.26 187.42 38.82
-231.32 77.89 -195.60
32.68 -187.66 124.49
153.81 3.25 40.55
182.75 187.14 35.95
126.29 102.28 -2.81
-302.40 -49.99 100.24
79.87 -118.98 234.48
131.36 148.65 -72.58
81.22 -119.14 205.72
142.71 182.59 21.07
72.14 32.10 -33.85
227.69 169.70 10.34
110.06 -112.52 167.97
46.89 -119.85 195.24
66.48 -254.76 20.37
-23.50 82.62 29.57
46.88 -119.87 195.53
145.38 182.66 -30.92
28.33 -102.94 28.16
-263.38 78.45 -208.88
-28.22 38.08 31.04
134.86 131.23 -29.04
142.78 2.19 10.98
28.24 -102.94 28.69
-47.94 -335.47 -75.41
83.39 -124.94 222.33
-29.52 -153.57 117.24
219.92 166.60 15.48
164.90 -168.92 31.35
-46.71 -338.90 -31.13
-200.21 83.83 -173.79
36.45 -21.14 -16.04
-237.51 65.00 -169.78
80.42 -169.53 49.90
-212.77 -34.33 218.50
113.47 -278.60 143.60
-215.24 78.33 -113.86
141.35 148.74 -40.17
-264.29 73.67 -266.44
79.72 -157.35 9.50
-27.49 -292.93 -39.29
9.38 -125.38 -55.11
-251.15 58.19 -241.87
224.57 170.21 16.88
37.50 -15.16 34.18
71.35 32.43 -32.73
138.66 -109.29 266.20
-195.59 80.93 -171.10
-264.45 73.09 -250.99
183.65 189.34 0.43
-20.42 -212.31 -190.87
141.34 -10.28 17.04
42.87 -127.06 119.50
25.31 -292.49 -46.13
132.95 148.26 -96.50
74.21 30.06 -12.96
233.27 165.97 23.02
75.99 -251.65 98.37
79.15 118.12 -42.71
165.08 4.88 1.25
181.97 186.92 40.35
132.49 148.58 -77.99
131.16 149.38 -94.16
-264.53 73.10 -250.72
71.63 -115.47 177.92
227.18 170.53 -3.02
113.49 -278.58 143.17
151.96 180.59 32.58
41.99 -126.01 116.88
166.30 161.82 -34.07
-166.87 105.09 -112.98
-312.81 -55.08 103.53
1.49 86.00 45.56
75.06 -123.59 174.56
227.86 169.95 3.79
-7.45 -24.93 -62.27
-51.27 -14.64 -64.20
-163.64 104.95 -115.36
-314.44 -52.92 89.75
-279.67 -47.30 185.72
147.64 96.26 -39.21
-167.39 104.79 -99.79
-23.48 111.82 -33.95
-279.26 -47.01 183.63
77.87 118.87 -33.78
206.80 118.27 77.25
77.29 119.27 -37.38
140.09 160.37 -72.13
-278.07 -47.72 194.54
107.76 99.50 -30.16
-216.09 79.72 -110.54
89.14 -305.83 51.19
127.26 -291.23 29.91
-226.36 -41.85 174.83
-278.94 -46.56 178.72
46.33 -119.76 196.89
113.94 -279.30 141.40
-216.09 79.72 -110.53
-317.41 -52.87 111.22
181.25 187.43 38.80
-313.55 -53.09 93.58
136.24 146.21 -41.63
14.47 -96.19 -21.17
-216.09 79.72 -110.52
-263.78 72.93 -257.61
-314.96 -52.99 90.23
-316.52 -52.79 113.67
139.99 152.67 -78.03
-314.96 -52.99 90.22
-125.59 90.49 -86.75
-264.35 73.05 -251.04
65.95 -254.15 25.75
-124.24 89.79 -83.40
-317.06 -52.94 116.47
-259.92 74.18 -282.88
140.58 160.02 -73.73
-4.78 -7.61 -48.16
182.36 187.25 37.66
126.31 102.26 -2.66
-7.46 -24.92 -62.28
-47.66 -335.10 -78.56
140.26 -110.05 256.92
-5.02 -7.49 -48.05
180.98 187.56 38.74
132.71 148.38 -96.44
87.77 -120.62 180.52
-316.87 -52.56 105.66
165.58 -169.27 27.78
-246.70 -52.14 116.44
79.23 -157.27 16.10
84.02 -125.08 205.69
180.80 187.89 35.58
-263.64 72.67 -259.85
-115.30 -23.67 327.68
23.83 -294.08 -24.34
29.50 64.50 -18.50
31.05 -133.93 -35.29
228.79 169.40 -1.32
64.98 -117.35 159.41
48.29 -176.68 6.79
80.49 -8.08 -29.80
-264.50 73.09 -250.75
-45.48 -337.23 -60.54
-207.55 82.45 -102.23
-125.55 90.45 -86.50
-156.38 98.80 -50.85
103.62 45.05 60.00
131.93 147.32 -83.08
181.31 187.39 42.29
48.94 -177.06 7.00
-22.12 82.07 25.37
-225.94 -41.10 157.18
142.35 182.24 -9.19
49.70 -177.36 5.98
15.43 25.49 -91.62
-301.27 -51.10 104.92
131.21 148.76 -73.57
129.68 159.24 28.89
138.57 -109.26 266.25
187.01 190.57 3.81
115.93 -141.93 90.76
144.15 181.45 -9.92
-17.37 -38.06 -84.22
-279.98 -46.45 190.97
-181.43 79.17 -104.06
228.91 169.34 -1.44
188.21 189.93 -2.83
94.01 -116.51 189.45
133.35 147.45 -75.75
24.69 -131.61 -45.65
66.25 35.00 -50.16
-280.79 -46.35 185.76
-312.89 -53.72 95.59
187.55 190.13 3.69
-317.81 -50.45 80.55
126.30 102.28 -2.87
141.05 -110.20 246.70
165.53 -169.20 33.56
137.76 131.80 -43.00
-278.02 -47.74 194.46
-278.79 -47.01 196.51
-231.41 77.41 -147.84
-238.30 67.40 -190.49
121.10 187.63 -3.65
104.04 115.36 -81.67
-48.50 -337.41 -27.83
-113.12 -24.95 323.38
69.48 41.26 -71.02
182.21 187.21 36.51
-168.11 105.07 -98.33
-229.89 64.30 -125.48
67.96 34.79 -42.97
79.67 -157.33 9.46
-158.16 101.33 -90.07
34.93 151.82 -72.75
-265.79 72.80 -239.47
-230.85 79.12 -162.13
-21.38 -133.59 -51.63
-21.37 -133.59 -51.66
76.26 -124.13 167.89
141.29 184.00 -15.35
76.18 -124.14 168.35
142.76 2.23 10.50
-180.96 89.40 -114.71
181.13 187.52 42.51
-260.45 73.23 -279.83
14.18 -95.97 -19.79
146.05 -5.74 17.98
-45.99 -338.82 -35.50
-45.99 -338.82 -35.50
-114.28 -23.47 325.01
-212.74 -34.04 215.53
-212.90 -34.26 218.26
27.99 61.55 26.25
-168.17 105.22 -99.05
47.12 129.88 -87.05
-302.17 -50.10 100.07
50.74 -279.16 46.54
-317.83 -50.44 80.57
-235.94 77.25 -171.42
16.45 -139.73 121.13
-275.74 -40.58 162.63
-279.26 -46.52 181.18
-23.75 -213.79 -174.25
68.83 41.98 -69.27
139.67 147.34 -47.09
134.78 136.44 -8.52
-226.01 82.84 -200.55
36.97 -111.77 118.55
24.72 -131.82 -43.47
-240.36 73.44 -140.22
93.94 98.59 -85.85
139.76 143.47 -30.80
80.19 -118.99 233.93
-27.42 83.39 -39.58
146.56 -6.25 17.97
-66.40 -334.43 -77.70
142.96 181.36 -11.23
141.02 156.20 -69.20
-48.36 -337.44 -28.33
56.67 -157.57 3.33
148.22 98.87 -40.77
-263.66 77.51 -188.99
42.40 -316.87 56.16
167.89 0.45 67.85
48.87 112.49 -83.78
27.94 61.63 25.16
-226.06 82.85 -200.44
25.83 61.58 -17.12
181.25 187.70 39.37
-168.79 106.19 -116.39
188.16 189.94 -2.70
-231.28 77.89 -195.83
-29.07 -153.49 110.78
148.28 -133.37 39.37
-169.11 105.97 -108.20
63.47 -253.18 33.99
-200.26 83.86 -173.92
-198.28 77.19 -138.46
145.89 146.57 0.48
-259.96 72.95 -278.54
78.73 -131.46 170.01
187.48 159.34 24.33
129.96 157.79 37.76
138.27 144.17 -31.53
41.84 -125.76 115.86
-316.93 -52.99 116.35
142.45 151.95 -38.30
131.18 148.76 -73.44
68.17 35.47 -39.08
-167.50 104.81 -99.47
-212.40 -34.25 216.46
-246.94 -52.05 117.44
228.76 161.86 60.25
-64.09 -332.89 -94.89
138.19 144.22 -31.88
60.87 -304.75 75.67
-196.10 81.10 -167.03
182.67 186.92 36.61
143.45 181.52 -13.66
14.72 -96.22 -22.30
142.77 182.04 -11.76
137.32 132.06 -44.80
-62.49 -334.43 -99.01
76.00 -251.62 98.14
180.49 187.79 38.60
50.86 -120.29 174.87
111.81 -65.79 127.05
33.64 -136.17 -33.18
-314.44 -53.97 115.86
89.30 -8.69 12.36
41.21 -125.42 115.52
227.12 170.64 6.10
-41.83 -331.42 -59.83
-128.77 89.63 -61.77
-196.17 81.14 -167.66
-5.44 -9.32 -14.44
-233.41 76.83 -185.18
181.39 187.35 42.15
-186.15 78.24 -91.95
-234.58 78.05 -189.20
-251.07 58.16 -241.95
115.94 -141.94 90.84
-167.31 104.72 -99.31
131.50 148.61 -72.85
-8.18 -24.86 -59.69
-18.46 -214.21 -189.90
185.29 190.41 58.59
103.94 44.86 59.21
-48.12 -335.09 -76.74
135.93 146.17 -46.39
36.63 -21.21 -16.17
110.35 155.30 -84.71
-113.19 -24.95 324.04
95.98 -302.21 86.01
-49.37 -156.38 38.24
207.59 117.18 76.87
139.89 152.74 -78.39
-46.98 -338.77 -30.70
-10.26 -217.16 -86.12
228.94 169.31 -1.12
66.31 -254.89 31.15
-124.23 89.78 -83.32
-67.67 -40.96 -83.84
93.93 98.65 -87.42
-235.20 77.97 -186.50
137.68 131.81 -42.70
204.48 119.00 47.39
35.39 -110.66 120.82
-168.20 105.35 -106.01
90.86 -120.62 220.63
146.83 181.09 -30.76
196.84 161.09 49.36
78.19 -252.07 92.94
-47.11 -335.27 -72.88
-19.94 -213.40 -190.59
150.72 4.30 42.08
79.43 -123.25 195.45
-180.13 77.83 -90.45
129.69 161.01 17.44
140.58 159.04 -62.03
-233.42 76.83 -185.17
-278.82 -47.18 195.70
-45.75 -339.00 -34.64
-125.24 89.43 -74.24
-260.45 73.23 -279.91
-115.11 -23.77 328.06
-48.58 -334.57 -77.41
32.06 -187.22 121.38
-27.36 -292.99 -39.26
-48.00 -335.18 -76.29
119.80 188.82 -6.27
228.45 169.42 8.85
80.84 -118.75 205.00
144.39 -172.19 -61.54
-57.00 -14.36 -44.55
29.66 64.39 -18.25
-70.03 -41.76 -46.88
69.47 40.88 -63.16
80.10 -118.60 207.11
-17.17 -38.17 -84.68
-262.38 76.51 -195.57
74.45 29.98 -13.74
-172.92 -29.17 240.76
-316.52 -51.61 69.63
133.77 147.27 -94.43
-184.30 90.96 -146.99
63.38 -253.16 34.26
-129.64 92.12 -97.90
-5.75 -26.51 -55.93
-316.62 -52.85 110.23
-198.92 82.13 -172.85
-279.23 -47.02 183.61
-128.81 89.64 -61.76
60.80 -304.71 75.48
84.48 -6.47 -29.78
-314.65 -52.72 95.94
127.73 186.99 -4.24
19.45 -126.67 -13.75
87.74 117.18 -11.51
152.39 184.92 -6.40
153.78 184.57 3.80
180.11 190.27 5.19
200.44 161.28 -7.75
-215.18 78.36 -114.33
69.20 128.32 -27.68
-252.41 58.59 -248.60
178.93 188.84 40.00
75.13 -123.61 174.45
108.46 109.68 -69.85
45.65 -119.75 191.14
-317.53 -53.02 120.40
84.20 -125.21 205.32
-36.59 -155.94 78.94
167.26 160.27 -4.50
-264.40 73.06 -250.91
140.59 159.06 -63.01
108.73 109.58 -70.49
139.68 143.83 -45.26
142.57 182.68 20.85
14.27 -96.02 -22.46
-241.87 81.42 -164.18
-168.75 105.00 -125.73
46.14 -119.75 198.57
-315.03 -52.51 100.23
66.25 -254.90 31.56
-253.96 59.16 -240.80
-113.95 -24.21 318.18
-57.33 -14.20 -43.63
14.53 -95.92 -21.79
108.61 109.61 -70.19
226.87 171.03 -4.19
-213.14 87.36 -161.83
-183.67 90.47 -109.45
80.60 -117.07 174.97
-314.56 -52.89 90.34
-46.70 -338.44 -36.86
-251.32 56.92 -233.65
150.90 4.30 41.45
152.99 4.45 33.12
142.41 182.73 21.27
112.50 -298.69 22.03
-180.51 77.46 -94.66
-312.79 -55.08 103.38
35.26 -138.40 -17.64
64.50 32.84 -15.11
-263.84 77.57 -188.11
-250.55 57.07 -236.78
114.77 -279.54 136.48
-262.38 76.51 -195.57
167.36 0.88 65.42
88.62 -305.75 56.82
-112.18 -25.62 324.84
-265.79 72.80 -239.46
-240.80 82.15 -176.17
71.53 -115.43 177.93
30.73 -133.61 -36.34
-211.90 80.07 -127.52
146.84 181.11 -31.10
139.51 143.92 -44.56
182.62 187.00 36.11
67.82 36.16 -38.89
-241.76 73.99 -140.78
-108.78 -24.61 303.90
32.80 -187.51 125.03
72.64 -302.58 98.25
-20.71 -212.09 -200.19
-67.87 -40.84 -84.14
60.37 -122.45 156.21
81.49 -8.55 -34.20
-24.87 81.94 -40.68
47.57 -320.75 61.65
-180.96 89.40 -114.66
-3.99 -8.31 -43.77
-242.67 81.87 -163.11
-312.81 -52.33 98.21
159.62 0.64 41.51
162.07 124.95 3.57
146.08 -5.76 18.08
169.09 0.79 53.99
147.33 96.54 -39.82
63.96 3.39 30.45
-278.92 -47.14 195.73
-254.50 59.67 -242.52
-30.25 -152.73 110.05
-36.32 -156.02 80.09
-40.74 -331.91 -62.36
121.99 -277.69 121.64
72.57 -302.75 99.37
-236.30 64.78 -130.61
70.72 32.87 -42.24
132.34 148.52 -95.38
46.83 -119.87 195.73
90.03 -117.48 215.28
-18.60 -214.07 -190.87
158.06 -178.65 43.38
-56.86 -14.43 -42.91
65.91 35.16 -48.28
148.71 144.95 -21.04
153.79 5.42 6.11
80.91 -118.76 204.67
78.97 -252.22 92.94
104.02 115.38 -81.86
68.20 42.32 -70.42
-215.31 78.38 -113.98
13.68 -95.78 -22.98
16.60 -139.68 122.88
-167.50 104.57 -102.01
-278.51 -47.08 181.10
182.23 187.36 36.98
-156.46 98.87 -51.02
-277.63 -47.72 194.11
-115.16 -23.74 327.90
69.39 40.90 -63.01
49.56 -119.57 186.75
-263.02 76.65 -188.22
-279.96 -46.43 190.61
-224.53 -40.87 147.42
72.50 -125.18 172.00
120.15 188.64 -6.71
-264.41 73.07 -251.12
182.61 186.96 36.80
-215.08 78.47 -110.17
116.26 -27.45 -49.66
22.68 -122.74 -17.99
54.31 -122.15 136.67
-23.91 82.85 32.53
-21.26 -211.81 -199.73
127.14 186.99 -1.98
-316.46 -52.84 113.17
34.67 151.99 -72.20
-128.51 89.49 -62.29
29.88 64.27 -18.39
66.42 -254.77 21.44
78.44 -121.12 221.09
-264.18 77.65 -185.74
-130.61 92.43 -96.46
132.69 148.38 -96.40
-264.19 72.95 -251.11
-45.65 -339.32 -30.84
142.83 2.16 11.30
78.15 -252.08 93.61
-277.78 -47.64 193.90
-278.98 -47.09 195.31
25.32 -292.46 -46.55
-19.71 -212.80 -190.72
134.02 131.48 -31.10
-195.65 77.65 -142.06
35.19 -110.59 121.00
141.42 158.55 -55.98
32.18 -187.25 121.18
137.77 131.80 -42.99
-36.32 -156.00 78.90
-252.63 58.35 -245.82
-117.16 -25.21 305.56
-29.61 40.24 31.02
142.91 181.93 -7.31
154.84 4.70 8.93
-8.21 -24.85 -59.60
57.87 -118.66 172.23
142.70 182.00 -8.74
99.20 103.06 -35.38
136.32 146.22 -42.64
-215.58 78.52 -113.66
-23.73 82.82 32.15
137.23 -109.09 254.41
-278.05 -47.73 194.52
-64.90 -333.48 -100.93
-207.32 81.72 -100.02
-40.13 -332.18 -63.18
134.91 146.15 -72.20
-277.95 -47.76 194.37
-264.33 77.67 -185.17
166.50 161.77 -35.25
78.96 -252.21 92.97
159.70 0.69 40.40
